0.165478 0.002004 0.495720 0.300000 0.000000 0.600000
0.447285 -0.087306 0.195184 0.000000 0.000000 1.000000
0.043325 -0.055671 -0.242967 0.300000 0.000000 0.600000
-0.328265 -0.511064 -0.307981 0.300000 0.000000 0.600000
0.383500 -0.143525 -0.083813 0.600000 0.300000 0.000000
0.318483 -0.662779 0.447360 0.300000 0.000000 0.600000
0.309907 0.836370 -0.418600 0.600000 0.000000 0.300000
0.348754 -0.158518 -0.278095 0.300000 0.600000 0.000000
-0.173206 0.014151 -0.033890 0.300000 0.000000 0.600000
0.182895 -0.089148 0.377133 0.000000 0.000000 1.000000
0.175009 0.014151 0.244898 0.300000 0.000000 0.600000
0.303733 -0.378331 -0.300851 0.300000 0.600000 0.000000
0.191208 0.014151 0.383729 0.300000 0.000000 0.600000
-0.090226 0.014151 0.375407 0.300000 0.000000 0.600000
-0.189210 0.820536 -0.431822 0.600000 0.000000 0.300000
0.331131 -0.395225 0.431843 0.300000 0.000000 0.600000
0.328341 0.590877 -0.344148 0.300000 0.600000 0.000000
0.446175 -0.045412 0.223923 0.000000 0.000000 1.000000
-0.084504 -0.029132 -0.345341 0.300000 0.000000 0.600000
-0.099672 -0.089148 0.326414 0.000000 0.000000 1.000000
-0.170044 -0.089148 -0.153153 0.000000 0.000000 1.000000
0.128846 -0.089148 0.176313 0.000000 0.000000 1.000000
-0.334301 -0.089148 0.000491 0.000000 0.000000 1.000000
-0.301575 0.214541 -0.321577 0.000000 0.500000 0.500000
0.290814 -0.560366 0.405094 0.300000 0.000000 0.600000
0.335151 -0.089148 0.045649 0.000000 0.000000 1.000000
-0.320211 -0.228009 -0.152699 0.300000 0.000000 0.600000
-0.177765 -0.089148 -0.258988 0.000000 0.000000 1.000000
-0.258723 -0.089148 -0.171920 0.000000 0.000000 1.000000
0.215838 -0.089148 -0.173637 0.000000 0.000000 1.000000
-0.377907 -0.023111 0.384587 0.300000 0.000000 0.600000
-0.350438 -0.397023 -0.278876 0.000000 0.500000 0.500000
-0.212488 -0.190675 0.439538 0.600000 0.000000 0.300000
0.047984 0.014151 -0.106562 0.300000 0.000000 0.600000
0.113660 -0.055671 0.120769 0.300000 0.000000 0.600000
-0.312244 -0.342743 0.408478 0.300000 0.000000 0.600000
-0.360739 0.257748 -0.345397 0.000000 0.500000 0.500000
0.261422 0.014151 -0.097748 0.300000 0.000000 0.600000
-0.343268 -0.055671 0.361872 0.300000 0.000000 0.600000
0.144654 -0.089148 0.303627 0.000000 0.000000 1.000000
0.148800 -0.055671 0.437840 0.300000 0.000000 0.600000
-0.057986 0.014151 0.077290 0.300000 0.000000 0.600000
0.163039 -0.089148 -0.289230 0.000000 0.000000 1.000000
0.053043 -0.029811 -0.000043 0.000000 0.000000 1.000000
0.042800 -0.089148 -0.053362 0.000000 0.000000 1.000000
0.194238 -0.029811 0.345169 0.000000 0.000000 1.000000
0.202486 -0.143953 0.487192 0.600000 0.000000 0.300000
-0.009828 0.014151 -0.264000 0.300000 0.000000 0.600000
0.308335 -0.328672 0.425831 0.600000 0.000000 0.300000
-0.360948 0.036745 -0.312717 0.000000 0.500000 0.500000
-0.353222 -0.055671 0.290124 0.300000 0.000000 0.600000
-0.103978 -0.055671 -0.262993 0.300000 0.000000 0.600000
-0.370334 0.453791 -0.355730 0.000000 0.500000 0.500000
-0.390190 -0.029811 0.163631 0.000000 0.000000 1.000000
-0.108363 0.014151 0.284593 0.300000 0.000000 0.600000
0.271922 0.014151 0.213110 0.300000 0.000000 0.600000
-0.280050 -0.512691 0.437840 0.600000 0.000000 0.300000
0.342362 0.014151 0.292880 0.300000 0.000000 0.600000
0.259050 0.014151 0.394587 0.300000 0.000000 0.600000
-0.272958 0.014151 0.289780 0.300000 0.000000 0.600000
-0.142333 -0.089148 -0.072471 0.000000 0.000000 1.000000
0.068775 -0.089148 0.350619 0.000000 0.000000 1.000000
-0.030907 -0.089148 0.379811 0.000000 0.000000 1.000000
0.427912 -0.026811 0.011443 0.300000 0.000000 0.600000
-0.308965 -0.359603 0.397780 0.300000 0.000000 0.600000
0.337192 -0.294090 -0.244269 0.600000 0.300000 0.000000
0.177078 -0.029811 0.216929 0.000000 0.000000 1.000000
0.124559 -0.055671 0.180446 0.300000 0.000000 0.600000
0.396037 0.014151 0.215489 0.300000 0.000000 0.600000
0.353538 -0.701620 -0.283856 0.300000 0.600000 0.000000
-0.072765 -0.029811 -0.114078 0.000000 0.000000 1.000000
-0.294952 -0.571858 0.441223 0.600000 0.000000 0.300000
0.267874 -0.089148 -0.019637 0.000000 0.000000 1.000000
-0.104605 -0.029811 -0.327104 0.000000 0.000000 1.000000
0.012912 0.699464 -0.472913 0.600000 0.000000 0.300000
-0.293081 0.141801 -0.281886 0.300000 0.000000 0.600000
0.352239 -0.734786 0.403502 0.300000 0.000000 0.600000
-0.191082 -0.055671 -0.154035 0.300000 0.000000 0.600000
0.382165 -0.089148 0.197095 0.000000 0.000000 1.000000
-0.331700 -0.050011 0.449341 0.000000 0.000000 1.000000
-0.175778 0.759195 -0.424823 0.600000 0.000000 0.300000
-0.307356 -0.089148 0.023528 0.000000 0.000000 1.000000
-0.325360 -0.035968 -0.258054 0.300000 0.000000 0.600000
0.297911 -0.190400 0.387786 0.300000 0.000000 0.600000
-0.277059 -0.747417 0.407917 0.600000 0.000000 0.300000
0.320972 -0.077670 -0.278886 0.300000 0.600000 0.000000
0.347591 0.747303 -0.390970 0.600000 0.000000 0.300000
-0.113190 -0.089148 0.112103 0.000000 0.000000 1.000000
0.108575 0.787095 -0.453461 0.600000 0.000000 0.300000
-0.303887 -0.348267 0.384058 0.600000 0.000000 0.300000
-0.208628 0.671089 -0.425200 0.600000 0.000000 0.300000
-0.322953 -0.248982 0.375538 0.300000 0.000000 0.600000
0.250807 -0.055671 0.030034 0.300000 0.000000 0.600000
0.427916 -0.070901 0.351348 0.000000 0.000000 1.000000
0.331114 -0.055671 0.158526 0.300000 0.000000 0.600000
0.301407 -0.086631 0.395272 0.300000 0.000000 0.600000
0.364340 -0.055671 0.204455 0.300000 0.000000 0.600000
-0.317463 0.778462 -0.365002 0.600000 0.000000 0.300000
-0.322957 -0.018913 -0.280035 0.000000 0.500000 0.500000
0.201915 -0.029811 0.089895 0.000000 0.000000 1.000000
-0.352195 0.328567 -0.362740 0.000000 0.500000 0.500000
0.214788 -0.055671 0.118359 0.300000 0.000000 0.600000
0.019132 0.650523 -0.437055 0.600000 0.000000 0.300000
-0.276821 -0.029811 -0.207183 0.000000 0.000000 1.000000
0.253286 0.619857 -0.392766 0.600000 0.000000 0.300000
0.066172 0.790354 -0.460061 0.600000 0.000000 0.300000
0.076138 -0.029811 0.485144 0.000000 0.000000 1.000000
0.449581 0.853515 -0.298813 0.600000 0.000000 0.300000
-0.254997 -0.305007 0.418568 0.600000 0.000000 0.300000
0.417479 0.005391 0.243101 0.300000 0.000000 0.600000
0.006136 -0.118703 0.497369 0.600000 0.000000 0.300000
-0.360890 -0.624034 -0.329177 0.000000 0.500000 0.500000
0.251491 0.785589 -0.414321 0.600000 0.000000 0.300000
0.103713 0.772128 -0.451468 0.600000 0.000000 0.300000
-0.407140 0.671331 -0.293219 0.600000 0.000000 0.300000
0.331599 -0.634145 0.386165 0.300000 0.000000 0.600000
0.102083 0.014151 -0.283266 0.300000 0.000000 0.600000
-0.144304 -0.089148 -0.003942 0.000000 0.000000 1.000000
0.133585 -0.029811 -0.247893 0.000000 0.000000 1.000000
-0.216859 -0.089148 0.438761 0.000000 0.000000 1.000000
-0.228436 0.014151 -0.196677 0.300000 0.000000 0.600000
-0.325934 0.735827 -0.372085 0.000000 0.500000 0.500000
0.311585 -0.693309 -0.315681 0.300000 0.600000 0.000000
-0.271807 0.825875 -0.398493 0.600000 0.000000 0.300000
-0.284485 -0.799408 0.454921 0.600000 0.000000 0.300000
0.192219 -0.055671 -0.062733 0.300000 0.000000 0.600000
0.273618 -0.055671 -0.058023 0.300000 0.000000 0.600000
-0.226505 0.831081 -0.446837 0.600000 0.000000 0.300000
-0.334324 -0.181568 -0.273977 0.000000 0.500000 0.500000
0.371026 -0.029811 0.065173 0.000000 0.000000 1.000000
-0.119154 -0.029811 0.312816 0.000000 0.000000 1.000000
0.061173 -0.089148 0.381735 0.000000 0.000000 1.000000
0.187295 -0.089148 -0.276882 0.000000 0.000000 1.000000
0.129801 0.470097 -0.341189 0.300000 0.000000 0.600000
0.314834 0.706616 -0.370980 0.600000 0.000000 0.300000
0.380531 0.741810 -0.369013 0.300000 0.600000 0.000000
0.212655 -0.055671 -0.088257 0.300000 0.000000 0.600000
0.130454 0.014151 0.067903 0.300000 0.000000 0.600000
-0.391652 -0.029811 0.281689 0.000000 0.000000 1.000000
0.251681 -0.029811 -0.061335 0.000000 0.000000 1.000000
-0.314349 -0.220277 0.368584 0.300000 0.000000 0.600000
-0.324820 -0.691402 0.434007 0.600000 0.000000 0.300000
-0.287260 0.755439 -0.377483 0.600000 0.000000 0.300000
0.109538 0.014151 0.167262 0.300000 0.000000 0.600000
-0.312987 -0.389116 -0.292026 0.300000 0.000000 0.600000
0.330347 -0.016357 -0.269432 0.300000 0.000000 0.600000
0.284246 -0.115113 0.413902 0.300000 0.000000 0.600000
0.117535 -0.003265 -0.339925 0.300000 0.000000 0.600000
0.301130 -0.089148 -0.037237 0.000000 0.000000 1.000000
-0.171942 -0.029811 0.419140 0.000000 0.000000 1.000000
-0.323059 0.844529 -0.375032 0.600000 0.000000 0.300000
0.153322 0.014151 -0.128998 0.300000 0.000000 0.600000
-0.322252 -0.277233 0.383239 0.300000 0.000000 0.600000
0.318685 -0.169124 0.385428 0.300000 0.000000 0.600000
0.095660 -0.055671 0.482442 0.300000 0.000000 0.600000
0.050672 0.007795 0.502111 0.300000 0.000000 0.600000
-0.312790 -0.474219 -0.280517 0.000000 0.500000 0.500000
0.031236 0.014151 -0.280958 0.300000 0.000000 0.600000
0.137954 -0.029811 -0.171725 0.000000 0.000000 1.000000
0.355987 -0.029811 0.011614 0.000000 0.000000 1.000000
-0.339925 -0.075161 -0.337301 0.000000 0.500000 0.500000
0.298726 -0.068411 0.415525 0.300000 0.000000 0.600000
-0.126714 0.808521 -0.448047 0.600000 0.000000 0.300000
0.068926 0.657720 -0.434925 0.600000 0.000000 0.300000
0.205092 0.726148 -0.419185 0.600000 0.000000 0.300000
0.034233 -0.029811 0.442263 0.000000 0.000000 1.000000
-0.349940 -0.154210 0.258506 0.300000 0.000000 0.600000
-0.373189 -0.029811 -0.064214 0.000000 0.000000 1.000000
0.355725 -0.089148 0.170725 0.000000 0.000000 1.000000
0.358696 -0.251356 -0.161273 0.600000 0.300000 0.000000
-0.145135 -0.089148 0.275320 0.000000 0.000000 1.000000
0.256664 -0.089148 -0.126956 0.000000 0.000000 1.000000
-0.010460 0.014151 -0.311168 0.300000 0.000000 0.600000
0.328987 -0.296728 0.403883 0.600000 0.300000 0.000000
-0.179511 -0.029811 0.359607 0.000000 0.000000 1.000000
-0.078036 0.804097 -0.484404 0.600000 0.000000 0.300000
0.232998 -0.029811 -0.297014 0.000000 0.000000 1.000000
0.202929 0.014151 0.054012 0.300000 0.000000 0.600000
-0.100065 -0.029811 0.232342 0.000000 0.000000 1.000000
0.226773 0.014151 0.143496 0.300000 0.000000 0.600000
0.358054 -0.334458 -0.262173 0.600000 0.300000 0.000000
-0.109965 -0.029811 0.264262 0.000000 0.000000 1.000000
-0.026146 -0.089148 0.531854 0.000000 0.000000 1.000000
-0.251337 -0.089148 -0.033876 0.000000 0.000000 1.000000
0.419212 -0.000048 0.301661 0.300000 0.000000 0.600000
0.073795 -0.029811 0.030351 0.000000 0.000000 1.000000
0.153440 -0.029811 0.462686 0.000000 0.000000 1.000000
0.187441 0.014151 -0.185597 0.300000 0.000000 0.600000
0.399062 -0.081083 0.063927 0.600000 0.300000 0.000000
-0.061364 -0.029811 -0.286906 0.000000 0.000000 1.000000
0.244515 -0.055671 0.014124 0.300000 0.000000 0.600000
0.252585 -0.029811 0.261133 0.000000 0.000000 1.000000
0.123818 0.014151 0.365176 0.300000 0.000000 0.600000
0.374308 -0.128289 0.249797 0.600000 0.300000 0.000000
0.152221 0.014151 -0.294030 0.300000 0.000000 0.600000
-0.095019 0.014151 -0.260126 0.300000 0.000000 0.600000
0.015726 0.014151 -0.253467 0.300000 0.000000 0.600000
-0.362335 -0.055671 0.205953 0.300000 0.000000 0.600000
-0.144958 -0.029811 -0.136058 0.000000 0.000000 1.000000
0.350148 -0.029811 0.234115 0.000000 0.000000 1.000000
0.309694 -0.029811 -0.197438 0.000000 0.000000 1.000000
0.253317 -0.022386 -0.310073 0.300000 0.000000 0.600000
0.369421 0.008237 -0.193677 0.300000 0.000000 0.600000
0.327719 0.447040 -0.321362 0.300000 0.600000 0.000000
-0.201247 0.014151 0.320821 0.300000 0.000000 0.600000
0.284738 -0.055671 0.260611 0.300000 0.000000 0.600000
-0.206265 -0.029811 -0.058047 0.000000 0.000000 1.000000
-0.301387 0.014151 0.279256 0.300000 0.000000 0.600000
0.402590 -0.089148 -0.168839 0.000000 0.000000 1.000000
-0.257263 0.782982 -0.426627 0.600000 0.000000 0.300000
-0.073694 -0.089148 0.481028 0.000000 0.000000 1.000000
-0.208742 0.618284 -0.401165 0.600000 0.000000 0.300000
-0.088897 -0.089148 0.513171 0.000000 0.000000 1.000000
0.155674 -0.029811 0.063552 0.000000 0.000000 1.000000
0.376508 -0.769311 -0.312237 0.300000 0.600000 0.000000
0.374854 0.780673 -0.380113 0.600000 0.000000 0.300000
-0.004360 0.014151 -0.073440 0.300000 0.000000 0.600000
0.401379 0.721226 -0.349667 0.600000 0.000000 0.300000
-0.028504 -0.055671 -0.268477 0.300000 0.000000 0.600000
0.260529 -0.029811 -0.272137 0.000000 0.000000 1.000000
-0.215311 0.014151 0.171492 0.300000 0.000000 0.600000
0.361833 -0.029811 0.195842 0.000000 0.000000 1.000000
0.121045 -0.055671 0.414309 0.300000 0.000000 0.600000
-0.403035 0.002207 0.237063 0.300000 0.000000 0.600000
0.066239 0.014151 0.161548 0.300000 0.000000 0.600000
0.343377 -0.235445 -0.200062 0.600000 0.300000 0.000000
0.139479 0.614102 -0.423492 0.600000 0.000000 0.300000
0.044351 -0.089148 0.258844 0.000000 0.000000 1.000000
0.107266 -0.029811 -0.162085 0.000000 0.000000 1.000000
0.386213 -0.089148 0.406382 0.000000 0.000000 1.000000
0.003277 -0.089148 -0.335114 0.000000 0.000000 1.000000
0.261051 -0.055671 -0.089385 0.300000 0.000000 0.600000
-0.298846 -0.297065 -0.308409 0.000000 0.500000 0.500000
-0.311523 0.501195 -0.346377 0.000000 0.500000 0.500000
0.310181 -0.831166 0.423487 0.300000 0.000000 0.600000
0.380070 -0.029811 0.336431 0.000000 0.000000 1.000000
0.315062 -0.521942 -0.328021 0.300000 0.600000 0.000000
-0.029150 -0.029811 0.173229 0.000000 0.000000 1.000000
-0.353836 -0.055671 0.063767 0.300000 0.000000 0.600000
0.305402 -0.811421 0.433117 0.300000 0.000000 0.600000
-0.405834 -0.045320 0.240498 0.300000 0.000000 0.600000
-0.247825 -0.055671 0.186405 0.300000 0.000000 0.600000
0.317685 0.578243 -0.369670 0.300000 0.600000 0.000000
0.062741 0.271867 -0.312959 0.600000 0.300000 0.000000
-0.306436 -0.082467 0.464615 0.000000 0.000000 1.000000
0.287422 -0.029811 -0.108342 0.000000 0.000000 1.000000
0.315875 -0.333024 -0.277496 0.300000 0.600000 0.000000
-0.270938 -0.055671 -0.026963 0.300000 0.000000 0.600000
-0.040278 0.679762 -0.466090 0.600000 0.000000 0.300000
-0.315814 -0.437832 -0.306194 0.300000 0.000000 0.600000
-0.194652 -0.053632 0.506087 0.000000 0.000000 1.000000
0.302372 -0.029811 0.279917 0.000000 0.000000 1.000000
0.189152 0.673435 -0.413952 0.600000 0.000000 0.300000
0.082467 -0.055671 -0.298638 0.300000 0.000000 0.600000
-0.056174 0.014151 0.239813 0.300000 0.000000 0.600000
0.330124 -0.626522 0.444329 0.300000 0.000000 0.600000
-0.343086 -0.314012 -0.274686 0.000000 0.500000 0.500000
0.022339 0.727042 -0.451290 0.600000 0.000000 0.300000
0.066790 -0.029811 0.383007 0.000000 0.000000 1.000000
0.261138 -0.211316 0.471344 0.600000 0.000000 0.300000
-0.397408 -0.045434 -0.033054 0.300000 0.000000 0.600000
0.366856 -0.145573 -0.023586 0.600000 0.300000 0.000000
-0.378861 -0.055671 0.049202 0.300000 0.000000 0.600000
0.403233 -0.029811 -0.139535 0.000000 0.000000 1.000000
0.048559 0.645182 -0.434462 0.600000 0.000000 0.300000
-0.101352 -0.029811 0.342620 0.000000 0.000000 1.000000
-0.424035 -0.069563 -0.066488 0.300000 0.000000 0.600000
0.278544 0.819896 -0.409652 0.600000 0.000000 0.300000
0.114475 -0.055671 0.032469 0.300000 0.000000 0.600000
0.099474 -0.055671 0.279772 0.300000 0.000000 0.600000
-0.062302 -0.089148 -0.041682 0.000000 0.000000 1.000000
-0.309975 0.446919 -0.358951 0.000000 0.500000 0.500000
-0.023696 -0.048087 -0.365621 0.000000 0.000000 1.000000
-0.101375 -0.050825 -0.330396 0.300000 0.000000 0.600000
0.323898 -0.833463 -0.315270 0.300000 0.600000 0.000000
-0.355114 -0.479271 -0.282933 0.000000 0.500000 0.500000
0.033936 0.014151 0.460055 0.300000 0.000000 0.600000
0.391983 -0.029811 0.399339 0.000000 0.000000 1.000000
-0.105641 -0.029811 0.323643 0.000000 0.000000 1.000000
0.375542 -0.041356 -0.217509 0.300000 0.000000 0.600000
0.372310 -0.150165 0.264399 0.600000 0.300000 0.000000
-0.372406 -0.029811 0.135415 0.000000 0.000000 1.000000
-0.068193 0.014151 -0.113490 0.300000 0.000000 0.600000
0.340609 -0.338054 0.397335 0.600000 0.300000 0.000000
0.350760 -0.493991 -0.305678 0.600000 0.300000 0.000000
-0.329958 -0.055671 0.331298 0.300000 0.000000 0.600000
-0.219057 -0.089148 0.386277 0.000000 0.000000 1.000000
-0.232773 0.834782 -0.427079 0.600000 0.000000 0.300000
0.321302 -0.420833 0.377274 0.300000 0.000000 0.600000
-0.363113 -0.029811 0.167267 0.000000 0.000000 1.000000
-0.052756 0.014151 0.190211 0.300000 0.000000 0.600000
-0.378119 -0.055671 0.006624 0.300000 0.000000 0.600000
-0.156330 0.005235 -0.319377 0.300000 0.000000 0.600000
0.139690 -0.089148 -0.241469 0.000000 0.000000 1.000000
0.378160 -0.029811 -0.002631 0.000000 0.000000 1.000000
0.106433 -0.029811 -0.023309 0.000000 0.000000 1.000000
0.284695 0.014151 0.184103 0.300000 0.000000 0.600000
-0.322692 -0.517383 -0.335208 0.000000 0.500000 0.500000
-0.112720 0.651842 -0.449187 0.600000 0.000000 0.300000
0.155887 -0.089148 -0.177947 0.000000 0.000000 1.000000
0.113727 -0.055671 0.251098 0.300000 0.000000 0.600000
0.212744 0.014151 -0.260015 0.300000 0.000000 0.600000
-0.314153 -0.587267 0.391498 0.600000 0.000000 0.300000
0.270421 0.761097 -0.402031 0.600000 0.000000 0.300000
-0.298998 -0.047667 -0.268136 0.300000 0.000000 0.600000
-0.307053 -0.089148 0.420556 0.000000 0.000000 1.000000
-0.315177 -0.029811 -0.195164 0.000000 0.000000 1.000000
-0.038967 -0.029811 0.387385 0.000000 0.000000 1.000000
-0.234457 0.014151 0.385542 0.300000 0.000000 0.600000
0.339082 -0.207687 0.359600 0.600000 0.300000 0.000000
-0.333558 -0.134282 0.193847 0.300000 0.000000 0.600000
-0.331388 -0.726515 -0.345047 0.000000 0.500000 0.500000
0.174809 0.617518 -0.407504 0.600000 0.000000 0.300000
-0.250229 -0.089148 -0.210553 0.000000 0.000000 1.000000
-0.037617 -0.029811 0.149208 0.000000 0.000000 1.000000
0.330549 -0.089148 -0.190859 0.000000 0.000000 1.000000
-0.154348 0.657500 -0.412411 0.600000 0.000000 0.300000
0.414974 -0.031500 0.385866 0.000000 0.000000 1.000000
0.036537 0.014151 0.355080 0.300000 0.000000 0.600000
-0.313768 -0.029811 0.240597 0.000000 0.000000 1.000000
0.251994 -0.029811 0.037926 0.000000 0.000000 1.000000
0.125266 -0.089148 0.306146 0.000000 0.000000 1.000000
0.130880 -0.055671 0.385317 0.300000 0.000000 0.600000
0.131985 0.014151 0.162049 0.300000 0.000000 0.600000
-0.367045 -0.082440 0.077353 0.300000 0.000000 0.600000
-0.323693 -0.055671 -0.123716 0.300000 0.000000 0.600000
-0.232257 0.186154 -0.287632 0.300000 0.000000 0.600000
-0.309219 -0.276034 -0.213017 0.300000 0.000000 0.600000
0.343821 -0.700636 -0.344744 0.300000 0.600000 0.000000
0.046043 0.014151 0.283758 0.300000 0.000000 0.600000
-0.004745 -0.055671 0.000301 0.300000 0.000000 0.600000
-0.013239 -0.029811 0.315400 0.000000 0.000000 1.000000
0.066479 0.014151 -0.278053 0.300000 0.000000 0.600000
-0.244250 -0.055671 0.417000 0.300000 0.000000 0.600000
0.045168 0.760257 -0.483191 0.600000 0.000000 0.300000
0.421464 0.001626 0.036433 0.300000 0.000000 0.600000
0.325138 -0.055671 -0.079019 0.300000 0.000000 0.600000
-0.099462 -0.029811 0.203400 0.000000 0.000000 1.000000
0.031533 -0.055671 0.265771 0.300000 0.000000 0.600000
-0.316237 -0.439118 0.401166 0.600000 0.000000 0.300000
0.378954 -0.049600 0.432532 0.000000 0.000000 1.000000
0.307620 -0.029811 -0.065073 0.000000 0.000000 1.000000
0.357371 -0.277907 -0.324038 0.300000 0.600000 0.000000
-0.189845 0.014033 -0.297281 0.300000 0.000000 0.600000
0.350163 -0.029811 -0.088207 0.000000 0.000000 1.000000
0.049797 -0.055671 -0.224768 0.300000 0.000000 0.600000
0.338986 0.644564 -0.346294 0.300000 0.600000 0.000000
-0.062847 -0.029811 -0.342983 0.000000 0.000000 1.000000
0.366833 -0.198525 -0.094961 0.600000 0.300000 0.000000
-0.256684 -0.029811 0.267087 0.000000 0.000000 1.000000
0.387010 -0.055671 0.340632 0.300000 0.000000 0.600000
0.379997 -0.193469 -0.146873 0.600000 0.300000 0.000000
-0.086602 -0.029811 -0.089977 0.000000 0.000000 1.000000
0.258490 -0.055671 0.388170 0.300000 0.000000 0.600000
-0.282481 -0.055671 -0.104614 0.300000 0.000000 0.600000
0.319842 -0.303742 0.437422 0.300000 0.000000 0.600000
-0.084258 0.701550 -0.464058 0.600000 0.000000 0.300000
-0.311683 -0.437102 -0.328457 0.000000 0.500000 0.500000
0.432647 -0.037195 0.152202 0.300000 0.000000 0.600000
0.330730 -0.324421 -0.258029 0.600000 0.300000 0.000000
0.239675 0.014151 0.171570 0.300000 0.000000 0.600000
-0.251430 0.672645 -0.379387 0.600000 0.000000 0.300000
0.311737 -0.089148 -0.170366 0.000000 0.000000 1.000000
-0.162268 -0.029811 0.368033 0.000000 0.000000 1.000000
-0.028526 0.014151 -0.012638 0.300000 0.000000 0.600000
0.320031 -0.825169 0.410967 0.300000 0.000000 0.600000
0.265980 -0.089148 0.021791 0.000000 0.000000 1.000000
0.024689 0.014151 -0.236174 0.300000 0.000000 0.600000
0.061271 -0.017703 0.517410 0.300000 0.000000 0.600000
-0.333017 -0.458924 -0.277019 0.300000 0.000000 0.600000
0.043135 -0.029811 0.321460 0.000000 0.000000 1.000000
-0.166896 -0.140240 0.463936 0.600000 0.000000 0.300000
-0.341668 -0.029811 -0.070606 0.000000 0.000000 1.000000
-0.379034 -0.089148 -0.171542 0.000000 0.000000 1.000000
0.407407 -0.089148 0.279966 0.000000 0.000000 1.000000
0.132641 -0.089148 0.355122 0.000000 0.000000 1.000000
0.199715 -0.089148 -0.306204 0.000000 0.000000 1.000000
0.340850 0.821738 -0.408608 0.600000 0.000000 0.300000
-0.347623 -0.545983 -0.278124 0.000000 0.500000 0.500000
-0.336100 -0.171645 -0.072165 0.300000 0.000000 0.600000
0.254363 -0.089148 0.242567 0.000000 0.000000 1.000000
0.350416 -0.089148 0.087168 0.000000 0.000000 1.000000
-0.296374 -0.614940 0.444049 0.600000 0.000000 0.300000
0.260723 -0.089148 -0.285253 0.000000 0.000000 1.000000
-0.305232 0.354160 -0.333406 0.000000 0.500000 0.500000
-0.069830 -0.055671 -0.010729 0.300000 0.000000 0.600000
0.329256 0.300451 -0.303333 0.300000 0.600000 0.000000
-0.274136 0.014151 -0.076979 0.300000 0.000000 0.600000
0.065740 -0.029811 -0.218836 0.000000 0.000000 1.000000
0.276693 0.000812 0.466392 0.300000 0.000000 0.600000
0.371425 0.014151 0.106952 0.300000 0.000000 0.600000
-0.221790 -0.055671 -0.040505 0.300000 0.000000 0.600000
-0.032508 -0.089148 0.211841 0.000000 0.000000 1.000000
0.178582 -0.089148 0.400862 0.000000 0.000000 1.000000
0.114970 -0.029811 0.126803 0.000000 0.000000 1.000000
-0.186883 -0.029811 0.189983 0.000000 0.000000 1.000000
0.336901 0.624899 -0.365840 0.600000 0.000000 0.300000
-0.036269 -0.029811 -0.300470 0.000000 0.000000 1.000000
-0.126867 0.827819 -0.464256 0.600000 0.000000 0.300000
0.355073 -0.650345 0.412569 0.300000 0.000000 0.600000
0.391531 -0.048674 -0.158008 0.300000 0.000000 0.600000
0.038344 -0.055671 0.145655 0.300000 0.000000 0.600000
0.235348 -0.089148 0.415324 0.000000 0.000000 1.000000
0.242506 -0.089148 0.177507 0.000000 0.000000 1.000000
0.229635 -0.029811 -0.147458 0.000000 0.000000 1.000000
-0.271605 0.675421 -0.400015 0.600000 0.000000 0.300000
0.284760 -0.055671 0.362739 0.300000 0.000000 0.600000
-0.170100 -0.029811 0.015208 0.000000 0.000000 1.000000
-0.306514 -0.029811 0.101461 0.000000 0.000000 1.000000
-0.129552 -0.029811 0.201318 0.000000 0.000000 1.000000
-0.185954 0.661099 -0.403115 0.600000 0.000000 0.300000
-0.314693 -0.089148 -0.055765 0.000000 0.000000 1.000000
-0.307613 0.747102 -0.395289 0.600000 0.000000 0.300000
0.040561 -0.089148 -0.197205 0.000000 0.000000 1.000000
-0.305969 -0.753103 0.397063 0.600000 0.000000 0.300000
0.096335 -0.029811 0.211314 0.000000 0.000000 1.000000
-0.407039 -0.029811 0.252424 0.000000 0.000000 1.000000
0.301796 -0.358233 0.417346 0.600000 0.000000 0.300000
-0.327988 -0.216422 0.317793 0.300000 0.000000 0.600000
0.148668 -0.029811 0.046705 0.000000 0.000000 1.000000
0.305379 -0.465357 0.435373 0.300000 0.000000 0.600000
-0.237135 0.014151 0.310207 0.300000 0.000000 0.600000
-0.274552 -0.089148 -0.259201 0.000000 0.000000 1.000000
0.428853 0.785780 -0.337545 0.600000 0.000000 0.300000
0.143818 0.714660 -0.460277 0.600000 0.000000 0.300000
0.146837 -0.055671 0.293809 0.300000 0.000000 0.600000
-0.287339 -0.076182 -0.303894 0.000000 0.000000 1.000000
-0.027543 -0.029811 -0.216709 0.000000 0.000000 1.000000
-0.214220 0.014151 0.242970 0.300000 0.000000 0.600000
0.303856 -0.645704 0.438773 0.300000 0.000000 0.600000
-0.210602 -0.029811 -0.163400 0.000000 0.000000 1.000000
-0.126028 0.014151 -0.020172 0.300000 0.000000 0.600000
0.060654 -0.089148 0.473367 0.000000 0.000000 1.000000
0.288644 0.748422 -0.391676 0.600000 0.000000 0.300000
-0.218252 -0.089148 0.138518 0.000000 0.000000 1.000000
0.325437 -0.089148 0.152760 0.000000 0.000000 1.000000
-0.299918 0.014151 0.350051 0.300000 0.000000 0.600000
0.094975 -0.089148 0.082303 0.000000 0.000000 1.000000
0.387147 0.014151 0.227973 0.300000 0.000000 0.600000
0.243369 -0.169623 0.464331 0.600000 0.000000 0.300000
-0.356621 -0.107663 -0.003391 0.300000 0.000000 0.600000
0.363232 -0.275052 -0.293656 0.300000 0.600000 0.000000
0.339698 -0.089148 -0.046983 0.000000 0.000000 1.000000
0.066908 -0.089148 0.071818 0.000000 0.000000 1.000000
0.079911 -0.029811 0.437177 0.000000 0.000000 1.000000
0.276622 -0.029811 0.063748 0.000000 0.000000 1.000000
0.309546 -0.089148 -0.128473 0.000000 0.000000 1.000000
-0.310482 -0.029865 -0.284429 0.000000 0.500000 0.500000
-0.361482 0.208481 -0.313552 0.000000 0.500000 0.500000
-0.149397 0.830567 -0.449582 0.600000 0.000000 0.300000
0.197824 0.001845 -0.319644 0.300000 0.000000 0.600000
0.171039 -0.089148 0.118751 0.000000 0.000000 1.000000
-0.391764 -0.020618 0.353779 0.300000 0.000000 0.600000
0.083543 -0.055671 0.105543 0.300000 0.000000 0.600000
0.291519 -0.055671 -0.008700 0.300000 0.000000 0.600000
0.005385 -0.029811 -0.252204 0.000000 0.000000 1.000000
0.345114 -0.073409 0.423191 0.300000 0.000000 0.600000
-0.092549 -0.089148 -0.016724 0.000000 0.000000 1.000000
0.129748 -0.029811 0.279232 0.000000 0.000000 1.000000
0.321565 -0.329721 -0.332113 0.300000 0.600000 0.000000
-0.269194 0.610412 -0.387095 0.600000 0.300000 0.000000
0.135299 -0.089148 -0.345452 0.000000 0.000000 1.000000
0.349135 -0.183198 -0.110090 0.600000 0.300000 0.000000
-0.282060 -0.218577 0.381828 0.600000 0.000000 0.300000
-0.253807 0.014151 0.004800 0.300000 0.000000 0.600000
0.126929 -0.055671 0.072255 0.300000 0.000000 0.600000
0.283417 0.646591 -0.403843 0.600000 0.000000 0.300000
-0.001158 0.014151 0.300883 0.300000 0.000000 0.600000
-0.319034 -0.149766 0.300984 0.300000 0.000000 0.600000
0.026722 -0.060801 -0.366275 0.000000 0.000000 1.000000
-0.334073 -0.055671 -0.077499 0.300000 0.000000 0.600000
0.219271 -0.089148 -0.150134 0.000000 0.000000 1.000000
0.044926 0.014151 -0.070515 0.300000 0.000000 0.600000
0.420145 0.004507 0.225088 0.300000 0.000000 0.600000
0.338761 -0.162277 -0.335943 0.300000 0.600000 0.000000
-0.008238 -0.029811 -0.337095 0.000000 0.000000 1.000000
0.367372 -0.828612 0.439288 0.300000 0.000000 0.600000
-0.093214 0.014151 0.232846 0.300000 0.000000 0.600000
-0.127425 0.640144 -0.416348 0.600000 0.000000 0.300000
-0.302092 0.009253 -0.252549 0.300000 0.000000 0.600000
-0.034429 -0.115052 0.507931 0.600000 0.000000 0.300000
0.149210 0.639742 -0.445142 0.600000 0.000000 0.300000
0.053924 -0.055671 0.170760 0.300000 0.000000 0.600000
0.397089 -0.050630 -0.124312 0.300000 0.000000 0.600000
-0.309430 0.628704 -0.345524 0.600000 0.000000 0.300000
-0.337768 -0.055671 0.040156 0.300000 0.000000 0.600000
0.449700 0.813507 -0.322998 0.600000 0.000000 0.300000
-0.119753 -0.055671 -0.239879 0.300000 0.000000 0.600000
0.300939 -0.751358 0.428066 0.300000 0.000000 0.600000
0.385168 -0.029811 -0.165753 0.000000 0.000000 1.000000
-0.217436 -0.029811 0.162190 0.000000 0.000000 1.000000
-0.357833 0.014151 0.322219 0.300000 0.000000 0.600000
0.208948 0.014151 0.280435 0.300000 0.000000 0.600000
0.185839 -0.089148 0.272016 0.000000 0.000000 1.000000
0.196931 -0.055671 0.184752 0.300000 0.000000 0.600000
-0.399059 -0.076753 0.368424 0.000000 0.000000 1.000000
0.083532 -0.089148 -0.024602 0.000000 0.000000 1.000000
0.167026 -0.029811 0.306119 0.000000 0.000000 1.000000
-0.057984 -0.055671 0.422318 0.300000 0.000000 0.600000
0.098036 -0.022624 0.514697 0.300000 0.000000 0.600000
-0.305852 -0.674497 0.447534 0.600000 0.000000 0.300000
-0.291007 -0.106347 0.390883 0.600000 0.000000 0.300000
0.012526 0.014151 -0.095875 0.300000 0.000000 0.600000
-0.352068 -0.089148 0.005226 0.000000 0.000000 1.000000
0.326610 -0.330211 0.411133 0.600000 0.300000 0.000000
-0.376185 -0.029811 0.349800 0.000000 0.000000 1.000000
-0.138165 -0.159635 0.483874 0.600000 0.000000 0.300000
0.320360 -0.557443 -0.309856 0.600000 0.300000 0.000000
-0.321777 -0.167854 0.255709 0.300000 0.000000 0.600000
-0.379347 0.014151 0.068465 0.300000 0.000000 0.600000
0.288057 -0.509406 0.410588 0.300000 0.000000 0.600000
0.334469 -0.089148 -0.138750 0.000000 0.000000 1.000000
0.340508 -0.013495 -0.280411 0.300000 0.600000 0.000000
0.072266 -0.055671 -0.258074 0.300000 0.000000 0.600000
-0.109168 -0.055671 -0.296552 0.300000 0.000000 0.600000
0.368884 -0.231352 -0.195589 0.600000 0.300000 0.000000
-0.346011 0.233239 -0.355965 0.000000 0.500000 0.500000
-0.157200 0.014151 0.066029 0.300000 0.000000 0.600000
-0.301296 -0.044759 0.467243 0.000000 0.000000 1.000000
-0.398560 -0.010281 -0.056334 0.300000 0.000000 0.600000
0.263387 -0.029811 0.466217 0.000000 0.000000 1.000000
0.100849 0.418561 -0.340215 0.300000 0.000000 0.600000
0.365362 0.231789 -0.313004 0.300000 0.600000 0.000000
0.207680 0.014151 0.173212 0.300000 0.000000 0.600000
0.414521 -0.089148 -0.000416 0.000000 0.000000 1.000000
0.429215 -0.029811 0.258675 0.000000 0.000000 1.000000
-0.254180 -0.055671 0.138207 0.300000 0.000000 0.600000
0.118309 -0.089148 0.272058 0.000000 0.000000 1.000000
-0.408724 0.796126 -0.336902 0.600000 0.000000 0.300000
0.272334 -0.055671 -0.165684 0.300000 0.000000 0.600000
0.379321 0.665763 -0.396097 0.300000 0.600000 0.000000
0.306594 -0.379801 0.436000 0.300000 0.000000 0.600000
-0.148884 0.014151 -0.258915 0.300000 0.000000 0.600000
0.364345 -0.055671 0.237813 0.300000 0.000000 0.600000
-0.403391 -0.032932 -0.113639 0.000000 0.000000 1.000000
0.229327 -0.029811 0.320244 0.000000 0.000000 1.000000
-0.226488 -0.055671 0.311585 0.300000 0.000000 0.600000
-0.058316 0.014151 -0.078868 0.300000 0.000000 0.600000
0.375960 -0.110877 -0.008078 0.600000 0.300000 0.000000
0.269642 -0.205133 0.442763 0.600000 0.000000 0.300000
0.332386 -0.029811 0.029123 0.000000 0.000000 1.000000
-0.018338 0.744829 -0.480191 0.600000 0.000000 0.300000
-0.251657 -0.055671 0.377777 0.300000 0.000000 0.600000
-0.252025 -0.089148 0.140229 0.000000 0.000000 1.000000
-0.242577 -0.055671 -0.269556 0.300000 0.000000 0.600000
0.338325 -0.226963 -0.170823 0.600000 0.300000 0.000000
0.320029 -0.595984 0.383044 0.300000 0.000000 0.600000
-0.140803 0.626489 -0.410219 0.600000 0.000000 0.300000
-0.278133 -0.055671 0.120845 0.300000 0.000000 0.600000
-0.324793 0.721549 -0.380801 0.600000 0.000000 0.300000
-0.283696 -0.079254 0.453111 0.600000 0.000000 0.300000
0.372116 -0.699156 -0.300945 0.300000 0.600000 0.000000
-0.113044 -0.029811 -0.313993 0.000000 0.000000 1.000000
0.142545 0.706008 -0.431763 0.600000 0.000000 0.300000
-0.019725 0.304386 -0.315257 0.300000 0.000000 0.600000
0.118862 -0.041052 0.528247 0.000000 0.000000 1.000000
0.372663 0.821447 -0.389301 0.600000 0.000000 0.300000
0.002040 -0.055671 0.466410 0.300000 0.000000 0.600000
-0.200361 -0.039862 -0.338036 0.000000 0.000000 1.000000
-0.212924 -0.055671 0.212581 0.300000 0.000000 0.600000
-0.274214 -0.417435 0.379187 0.600000 0.000000 0.300000
-0.412291 -0.089148 -0.030028 0.000000 0.000000 1.000000
0.277662 0.014151 0.150662 0.300000 0.000000 0.600000
0.345495 -0.593138 -0.277423 0.300000 0.600000 0.000000
-0.156510 0.014151 0.294416 0.300000 0.000000 0.600000
0.249142 -0.233843 0.453475 0.600000 0.000000 0.300000
0.327379 -0.223743 0.437854 0.300000 0.000000 0.600000
-0.413516 -0.033506 0.196189 0.300000 0.000000 0.600000
-0.215703 -0.089148 -0.074942 0.000000 0.000000 1.000000
0.363069 -0.151520 -0.039416 0.600000 0.300000 0.000000
-0.356982 -0.029811 -0.221894 0.000000 0.000000 1.000000
0.309473 -0.573637 -0.296425 0.300000 0.600000 0.000000
-0.352813 -0.089148 0.046065 0.000000 0.000000 1.000000
0.315984 -0.089148 0.096392 0.000000 0.000000 1.000000
-0.364686 -0.089148 0.369923 0.000000 0.000000 1.000000
-0.358020 0.024410 -0.326042 0.000000 0.500000 0.500000
-0.333914 -0.409617 -0.286904 0.300000 0.000000 0.600000
-0.279896 -0.135749 0.387957 0.600000 0.000000 0.300000
0.233710 0.715706 -0.407768 0.600000 0.000000 0.300000
0.066410 0.672584 -0.464842 0.600000 0.000000 0.300000
0.164579 -0.055671 -0.046307 0.300000 0.000000 0.600000
0.280616 -0.055671 -0.202759 0.300000 0.000000 0.600000
0.162752 -0.029811 0.155607 0.000000 0.000000 1.000000
-0.349899 -0.089148 -0.253177 0.000000 0.000000 1.000000
0.359277 -0.256363 -0.321474 0.300000 0.600000 0.000000
0.345873 -0.029811 0.365891 0.000000 0.000000 1.000000
-0.303689 -0.055671 0.107466 0.300000 0.000000 0.600000
-0.033087 0.014151 0.251152 0.300000 0.000000 0.600000
-0.062165 -0.055671 0.354966 0.300000 0.000000 0.600000
0.067161 0.014151 -0.029040 0.300000 0.000000 0.600000
-0.316977 -0.055671 0.141994 0.300000 0.000000 0.600000
-0.173205 0.651223 -0.405398 0.600000 0.000000 0.300000
-0.041635 0.014151 0.283365 0.300000 0.000000 0.600000
0.334381 -0.141497 0.254770 0.600000 0.300000 0.000000
-0.003001 -0.029811 0.025617 0.000000 0.000000 1.000000
0.420422 0.826484 -0.353146 0.600000 0.000000 0.300000
-0.022909 0.014151 -0.280761 0.300000 0.000000 0.600000
0.327203 -0.727865 0.394130 0.300000 0.000000 0.600000
0.171963 0.206178 -0.297751 0.600000 0.300000 0.000000
0.432363 -0.021710 0.096800 0.300000 0.000000 0.600000
-0.088707 -0.055671 -0.291915 0.300000 0.000000 0.600000
-0.102483 -0.055671 0.352689 0.300000 0.000000 0.600000
0.331176 -0.029811 -0.106340 0.000000 0.000000 1.000000
0.168564 -0.029811 0.407038 0.000000 0.000000 1.000000
-0.174652 -0.029811 -0.228948 0.000000 0.000000 1.000000
0.032936 0.014151 0.417101 0.300000 0.000000 0.600000
0.103944 0.014151 -0.039120 0.300000 0.000000 0.600000
0.119304 -0.029811 0.026722 0.000000 0.000000 1.000000
0.079582 -0.055671 0.090449 0.300000 0.000000 0.600000
0.439206 0.808056 -0.295401 0.600000 0.000000 0.300000
0.039520 0.014151 0.481391 0.300000 0.000000 0.600000
-0.334523 -0.039802 -0.271977 0.000000 0.000000 1.000000
0.153237 -0.055671 -0.317911 0.300000 0.000000 0.600000
0.366420 -0.189404 -0.082063 0.600000 0.300000 0.000000
-0.193527 -0.089148 0.491384 0.000000 0.000000 1.000000
-0.299011 -0.599389 0.442569 0.600000 0.000000 0.300000
-0.093672 -0.089148 0.167637 0.000000 0.000000 1.000000
0.191856 -0.029811 0.512365 0.000000 0.000000 1.000000
-0.329869 -0.055671 -0.220681 0.300000 0.000000 0.600000
-0.395916 -0.043315 -0.065957 0.300000 0.000000 0.600000
-0.300005 -0.029811 -0.262383 0.000000 0.000000 1.000000
-0.168936 0.014151 -0.130493 0.300000 0.000000 0.600000
0.264646 0.014151 -0.014996 0.300000 0.000000 0.600000
-0.049428 -0.063524 -0.363782 0.000000 0.000000 1.000000
0.149338 -0.055671 0.339201 0.300000 0.000000 0.600000
0.360365 0.444522 -0.375436 0.300000 0.600000 0.000000
-0.366398 0.543687 -0.382794 0.000000 0.500000 0.500000
0.115236 -0.089148 0.002707 0.000000 0.000000 1.000000
0.351656 0.018002 -0.338310 0.300000 0.600000 0.000000
0.364380 -0.055671 0.013836 0.300000 0.000000 0.600000
-0.424187 -0.045952 -0.111287 0.300000 0.000000 0.600000
-0.378757 0.640291 -0.297535 0.600000 0.000000 0.300000
-0.048725 0.803382 -0.488368 0.600000 0.000000 0.300000
-0.321273 -0.624576 0.427661 0.600000 0.000000 0.300000
-0.372530 0.756859 -0.356924 0.600000 0.000000 0.300000
0.195925 -0.055671 -0.177889 0.300000 0.000000 0.600000
-0.148297 -0.055671 0.315698 0.300000 0.000000 0.600000
-0.034727 -0.089148 0.433023 0.000000 0.000000 1.000000
-0.392207 -0.000896 -0.088468 0.300000 0.000000 0.600000
-0.404214 -0.043175 0.284519 0.300000 0.000000 0.600000
0.227562 0.573341 -0.371432 0.300000 0.000000 0.600000
-0.291565 0.014151 -0.227101 0.300000 0.000000 0.600000
-0.349806 0.279725 -0.358833 0.000000 0.500000 0.500000
-0.364568 -0.124219 0.143272 0.300000 0.000000 0.600000
0.179616 -0.089148 -0.339696 0.000000 0.000000 1.000000
-0.278939 -0.089148 0.471779 0.000000 0.000000 1.000000
-0.133539 -0.055671 0.261757 0.300000 0.000000 0.600000
-0.003588 0.014151 -0.007126 0.300000 0.000000 0.600000
0.023189 0.014151 -0.124488 0.300000 0.000000 0.600000
-0.147347 0.754579 -0.460034 0.600000 0.000000 0.300000
-0.316379 -0.029811 0.452965 0.000000 0.000000 1.000000
0.120963 -0.029811 0.194516 0.000000 0.000000 1.000000
0.298879 -0.708447 0.415573 0.300000 0.000000 0.600000
0.108264 -0.055671 0.177231 0.300000 0.000000 0.600000
0.310552 -0.608378 -0.297457 0.300000 0.600000 0.000000
-0.025966 -0.089148 0.462199 0.000000 0.000000 1.000000
-0.260578 -0.533545 0.400046 0.600000 0.000000 0.300000
0.363463 -0.012142 0.421965 0.300000 0.000000 0.600000
0.263162 -0.089148 0.492502 0.000000 0.000000 1.000000
0.419562 -0.029811 0.173034 0.000000 0.000000 1.000000
0.211941 -0.055671 0.081560 0.300000 0.000000 0.600000
-0.256608 -0.406626 0.397112 0.600000 0.000000 0.300000
0.031952 -0.089148 -0.026314 0.000000 0.000000 1.000000
-0.276674 0.014151 -0.224121 0.300000 0.000000 0.600000
-0.170358 0.014151 0.406304 0.300000 0.000000 0.600000
0.267375 -0.055671 0.457088 0.300000 0.000000 0.600000
-0.220531 -0.029811 0.410150 0.000000 0.000000 1.000000
0.305094 0.014151 0.197015 0.300000 0.000000 0.600000
-0.414897 -0.008346 -0.165059 0.300000 0.000000 0.600000
-0.092939 -0.029811 0.266760 0.000000 0.000000 1.000000
0.302432 -0.029811 0.261877 0.000000 0.000000 1.000000
-0.080797 0.724702 -0.441903 0.600000 0.000000 0.300000
0.361312 0.014151 0.166896 0.300000 0.000000 0.600000
-0.266345 -0.055671 0.403065 0.300000 0.000000 0.600000
0.373811 -0.089148 -0.115378 0.000000 0.000000 1.000000
0.350625 0.635646 -0.337034 0.600000 0.000000 0.300000
0.317736 -0.490177 0.438211 0.300000 0.000000 0.600000
0.013797 -0.089148 0.174451 0.000000 0.000000 1.000000
-0.055190 -0.089148 0.162867 0.000000 0.000000 1.000000
0.134850 -0.029811 -0.119279 0.000000 0.000000 1.000000
-0.418107 -0.074795 0.022663 0.000000 0.000000 1.000000
-0.412503 -0.025166 0.091797 0.300000 0.000000 0.600000
0.084085 -0.089148 0.405980 0.000000 0.000000 1.000000
0.071891 -0.029811 0.150690 0.000000 0.000000 1.000000
-0.079274 0.014151 0.242142 0.300000 0.000000 0.600000
0.308754 -0.589232 0.439828 0.300000 0.000000 0.600000
0.239707 -0.089148 0.138708 0.000000 0.000000 1.000000
0.319089 0.014151 -0.088226 0.300000 0.000000 0.600000
0.259813 0.746166 -0.432078 0.600000 0.000000 0.300000
-0.060747 -0.055671 0.034118 0.300000 0.000000 0.600000
0.241175 0.014151 0.415170 0.300000 0.000000 0.600000
0.296914 -0.654320 0.428364 0.300000 0.000000 0.600000
0.391736 -0.121958 0.149136 0.600000 0.300000 0.000000
0.411505 -0.011885 0.349839 0.300000 0.000000 0.600000
0.102826 0.014151 0.357730 0.300000 0.000000 0.600000
0.142019 0.014151 -0.051870 0.300000 0.000000 0.600000
0.260147 -0.089148 0.211907 0.000000 0.000000 1.000000
-0.406167 -0.040614 0.345576 0.000000 0.000000 1.000000
0.318299 -0.215759 0.357841 0.600000 0.300000 0.000000
-0.133381 -0.029811 0.494523 0.000000 0.000000 1.000000
-0.277184 -0.190266 0.443084 0.600000 0.000000 0.300000
0.431012 -0.075098 -0.099001 0.000000 0.000000 1.000000
0.172992 -0.055671 0.146028 0.300000 0.000000 0.600000
-0.387964 -0.004431 -0.118694 0.300000 0.000000 0.600000
0.053800 -0.055671 0.433679 0.300000 0.000000 0.600000
-0.028434 -0.089148 0.018733 0.000000 0.000000 1.000000
0.306214 -0.089148 0.378551 0.000000 0.000000 1.000000
0.373064 -0.029811 -0.063815 0.000000 0.000000 1.000000
-0.161216 -0.029811 0.227187 0.000000 0.000000 1.000000
0.331001 0.662248 -0.384064 0.600000 0.000000 0.300000
0.302685 0.651650 -0.366900 0.600000 0.000000 0.300000
-0.018156 -0.029811 -0.288978 0.000000 0.000000 1.000000
-0.087390 -0.029811 -0.061617 0.000000 0.000000 1.000000
-0.311812 0.299031 -0.354732 0.000000 0.500000 0.500000
-0.096516 -0.055671 -0.173037 0.300000 0.000000 0.600000
-0.194147 -0.089148 0.180687 0.000000 0.000000 1.000000
-0.390859 0.044225 -0.217782 0.300000 0.000000 0.600000
-0.249433 0.618867 -0.399422 0.600000 0.000000 0.300000
-0.199030 0.014151 0.111494 0.300000 0.000000 0.600000
-0.280181 -0.018676 -0.288156 0.300000 0.000000 0.600000
0.023672 -0.029811 0.410518 0.000000 0.000000 1.000000
0.067133 0.014151 0.019063 0.300000 0.000000 0.600000
-0.423177 -0.067025 0.138065 0.000000 0.000000 1.000000
0.262492 -0.238300 0.427511 0.600000 0.000000 0.300000
0.229845 -0.089148 -0.089885 0.000000 0.000000 1.000000
-0.284063 -0.356693 0.376493 0.300000 0.000000 0.600000
0.005088 0.014151 -0.155333 0.300000 0.000000 0.600000
-0.261521 -0.089148 -0.135209 0.000000 0.000000 1.000000
0.041390 0.014151 0.106297 0.300000 0.000000 0.600000
0.042303 -0.089148 0.006246 0.000000 0.000000 1.000000
0.371832 -0.089148 -0.174516 0.000000 0.000000 1.000000
-0.263022 -0.587796 0.402705 0.600000 0.000000 0.300000
0.296961 -0.029811 0.082290 0.000000 0.000000 1.000000
-0.200241 0.549701 -0.364887 0.600000 0.300000 0.000000
0.365855 0.845600 -0.369313 0.600000 0.000000 0.300000
0.236336 0.014151 0.383269 0.300000 0.000000 0.600000
-0.209896 -0.029811 0.306653 0.000000 0.000000 1.000000
-0.322726 -0.221820 -0.334654 0.000000 0.500000 0.500000
0.051647 -0.029811 -0.247123 0.000000 0.000000 1.000000
0.059421 0.746354 -0.479293 0.600000 0.000000 0.300000
-0.270273 -0.043838 0.463192 0.300000 0.000000 0.600000
-0.103560 0.621861 -0.445566 0.600000 0.000000 0.300000
-0.195571 -0.017765 -0.322019 0.300000 0.000000 0.600000
0.439250 0.717839 -0.298914 0.600000 0.000000 0.300000
0.401158 -0.105952 0.148044 0.600000 0.300000 0.000000
-0.343219 0.771257 -0.370132 0.000000 0.500000 0.500000
-0.320551 -0.177675 0.269278 0.300000 0.000000 0.600000
0.122158 -0.029811 0.466834 0.000000 0.000000 1.000000
0.254406 0.014151 0.443430 0.300000 0.000000 0.600000
-0.294474 -0.186765 0.385803 0.600000 0.000000 0.300000
0.022686 0.302048 -0.322789 0.600000 0.300000 0.000000
0.373861 0.464883 -0.362086 0.300000 0.600000 0.000000
-0.123694 -0.089148 0.363936 0.000000 0.000000 1.000000
-0.061706 -0.029811 0.126430 0.000000 0.000000 1.000000
0.267937 0.014151 0.119106 0.300000 0.000000 0.600000
0.406523 -0.083961 0.093258 0.600000 0.300000 0.000000
0.415408 -0.054948 0.122037 0.300000 0.000000 0.600000
-0.148341 -0.055671 0.410775 0.300000 0.000000 0.600000
0.201955 -0.029811 -0.121700 0.000000 0.000000 1.000000
0.317679 -0.479205 -0.279024 0.600000 0.300000 0.000000
-0.231841 -0.029811 0.076192 0.000000 0.000000 1.000000
-0.213261 0.014151 0.050646 0.300000 0.000000 0.600000
-0.120879 -0.055671 -0.091841 0.300000 0.000000 0.600000
-0.263882 -0.188541 0.390808 0.600000 0.000000 0.300000
-0.137789 -0.029811 -0.012714 0.000000 0.000000 1.000000
0.363929 -0.140767 -0.066511 0.600000 0.300000 0.000000
0.131407 -0.055671 -0.146759 0.300000 0.000000 0.600000
0.207934 -0.029811 0.179760 0.000000 0.000000 1.000000
-0.416764 0.717792 -0.300215 0.600000 0.000000 0.300000
-0.234412 -0.089148 0.387352 0.000000 0.000000 1.000000
-0.253596 -0.321994 0.411367 0.600000 0.000000 0.300000
-0.084760 -0.055671 0.237739 0.300000 0.000000 0.600000
0.019757 0.644163 -0.462668 0.600000 0.000000 0.300000
0.244778 -0.089148 -0.091180 0.000000 0.000000 1.000000
0.065455 -0.055671 0.246812 0.300000 0.000000 0.600000
-0.294586 0.687790 -0.390954 0.600000 0.000000 0.300000
0.230366 -0.087481 0.505236 0.000000 0.000000 1.000000
-0.300317 0.014151 -0.121085 0.300000 0.000000 0.600000
-0.332383 -0.213546 -0.183444 0.300000 0.000000 0.600000
-0.227154 0.014151 -0.239341 0.300000 0.000000 0.600000
-0.321699 -0.134547 0.218158 0.300000 0.000000 0.600000
0.302198 -0.088691 -0.311547 0.300000 0.600000 0.000000
-0.037362 -0.029811 -0.069362 0.000000 0.000000 1.000000
0.340046 -0.012340 0.439075 0.300000 0.000000 0.600000
-0.321809 -0.580648 0.408270 0.600000 0.000000 0.300000
0.350190 -0.158359 0.239247 0.600000 0.300000 0.000000
0.148156 -0.055671 0.037415 0.300000 0.000000 0.600000
-0.294390 -0.029811 0.409264 0.000000 0.000000 1.000000
0.082033 0.014151 0.133649 0.300000 0.000000 0.600000
0.367457 0.771245 -0.351045 0.600000 0.000000 0.300000
0.330462 -0.055671 -0.121156 0.300000 0.000000 0.600000
-0.362363 -0.407509 -0.303088 0.000000 0.500000 0.500000
-0.271453 0.760664 -0.386460 0.600000 0.000000 0.300000
-0.200407 -0.055671 0.322421 0.300000 0.000000 0.600000
0.073758 0.683871 -0.439199 0.600000 0.000000 0.300000
0.294050 -0.197124 0.436830 0.300000 0.000000 0.600000
-0.126012 -0.055671 0.235379 0.300000 0.000000 0.600000
-0.417438 0.731560 -0.317939 0.600000 0.000000 0.300000
0.331603 -0.166967 0.317157 0.600000 0.300000 0.000000
0.411713 -0.044513 -0.086430 0.300000 0.000000 0.600000
-0.406261 -0.046515 0.144253 0.300000 0.000000 0.600000
0.263088 -0.072240 -0.324052 0.000000 0.000000 1.000000
-0.341455 0.158683 -0.291474 0.000000 0.500000 0.500000
0.335136 -0.055671 0.289282 0.300000 0.000000 0.600000
-0.337934 -0.029811 -0.145585 0.000000 0.000000 1.000000
-0.423245 -0.076920 0.205961 0.000000 0.000000 1.000000
-0.190355 -0.055671 -0.109268 0.300000 0.000000 0.600000
-0.144082 0.014151 0.075636 0.300000 0.000000 0.600000
0.213986 -0.055671 0.456925 0.300000 0.000000 0.600000
0.184607 0.014151 0.190793 0.300000 0.000000 0.600000
-0.030204 -0.089148 -0.147810 0.000000 0.000000 1.000000
0.203141 -0.029811 -0.278490 0.000000 0.000000 1.000000
0.443651 -0.071323 0.257444 0.000000 0.000000 1.000000
-0.280503 -0.512784 0.379882 0.600000 0.000000 0.300000
-0.326450 -0.089148 0.401354 0.000000 0.000000 1.000000
0.043132 -0.029811 0.267815 0.000000 0.000000 1.000000
-0.320400 -0.829810 -0.301843 0.000000 0.500000 0.500000
0.279417 -0.029811 -0.076434 0.000000 0.000000 1.000000
0.237085 0.014151 -0.016133 0.300000 0.000000 0.600000
0.293744 0.014151 0.056456 0.300000 0.000000 0.600000
0.157050 0.014151 0.079714 0.300000 0.000000 0.600000
-0.188528 -0.029811 0.443455 0.000000 0.000000 1.000000
-0.214011 -0.089148 0.296432 0.000000 0.000000 1.000000
0.000607 -0.024743 -0.350421 0.300000 0.000000 0.600000
-0.274260 -0.796290 0.433824 0.600000 0.000000 0.300000
-0.331354 0.640952 -0.330589 0.600000 0.000000 0.300000
-0.261889 -0.029811 -0.049479 0.000000 0.000000 1.000000
-0.042931 -0.029811 -0.149318 0.000000 0.000000 1.000000
-0.268266 -0.205159 0.439116 0.600000 0.000000 0.300000
-0.377371 0.606398 -0.370141 0.000000 0.500000 0.500000
0.205659 0.014151 0.023262 0.300000 0.000000 0.600000
0.367801 0.297472 -0.320902 0.300000 0.600000 0.000000
0.364428 0.694833 -0.370756 0.600000 0.000000 0.300000
-0.004345 0.014151 0.439745 0.300000 0.000000 0.600000
-0.204437 -0.205366 0.472237 0.600000 0.000000 0.300000
-0.369925 0.690139 -0.313691 0.600000 0.000000 0.300000
-0.307825 -0.146053 0.434953 0.600000 0.000000 0.300000
-0.420747 0.857095 -0.307391 0.600000 0.000000 0.300000
0.054156 0.674276 -0.439406 0.600000 0.000000 0.300000
0.221793 -0.089148 0.150732 0.000000 0.000000 1.000000
-0.241446 -0.208839 0.455370 0.600000 0.000000 0.300000
0.146792 0.236634 -0.298470 0.600000 0.300000 0.000000
-0.321275 -0.279378 -0.237063 0.300000 0.000000 0.600000
0.113807 -0.089148 0.202997 0.000000 0.000000 1.000000
-0.297198 -0.045122 0.448270 0.300000 0.000000 0.600000
-0.379594 0.795799 -0.325991 0.600000 0.000000 0.300000
-0.206128 0.830191 -0.451591 0.600000 0.000000 0.300000
-0.366097 -0.055671 0.168312 0.300000 0.000000 0.600000
0.300469 -0.360721 0.433972 0.300000 0.000000 0.600000
0.320836 -0.089148 0.051899 0.000000 0.000000 1.000000
-0.388262 0.003700 0.325213 0.300000 0.000000 0.600000
0.354903 -0.303241 -0.201203 0.600000 0.300000 0.000000
0.335113 0.125762 -0.273363 0.600000 0.300000 0.000000
0.312333 -0.089148 -0.294710 0.000000 0.000000 1.000000
-0.346229 -0.018102 -0.234444 0.300000 0.000000 0.600000
0.010846 -0.029811 0.493986 0.000000 0.000000 1.000000
-0.299869 -0.243948 -0.314703 0.000000 0.500000 0.500000
-0.416125 -0.072437 0.000244 0.000000 0.000000 1.000000
-0.275765 -0.588799 0.387021 0.600000 0.000000 0.300000
0.371677 -0.029811 -0.042196 0.000000 0.000000 1.000000
0.303771 -0.057437 -0.298227 0.300000 0.600000 0.000000
-0.144171 0.454677 -0.355774 0.600000 0.300000 0.000000
