ply
format ascii 1.0
element vertex 1279
property float x
property float y
property float z
property uchar red
property uchar green
property uchar blue
end_header
-0.183005 0.502009 -0.361498 153 76 0
-0.257875 -0.442682 0.417969 153 0 76
0.342884 -0.264494 0.402563 76 0 153
-0.052046 -0.089148 -0.360082 0 0 255
0.374673 0.502461 -0.345678 76 153 0
-0.147756 0.824370 -0.472996 153 0 76
0.376406 -0.013791 -0.218566 76 0 153
0.463974 0.846363 -0.313000 153 0 76
-0.154201 0.196929 -0.303181 76 0 153
-0.166368 -0.165401 0.488252 153 0 76
-0.365382 -0.132590 0.029731 76 0 153
0.184735 0.014151 0.230158 76 0 153
-0.140564 0.014151 0.277454 76 0 153
0.126518 -0.089148 -0.166415 0 0 255
0.379230 -0.003716 0.404578 76 0 153
-0.366137 0.330427 -0.335762 0 127 127
-0.192827 -0.089148 -0.148056 0 0 255
0.124849 0.465497 -0.342540 76 0 153
0.356445 -0.587404 -0.282670 76 153 0
0.002671 0.636472 -0.460949 153 0 76
-0.374251 0.638889 -0.390069 0 127 127
-0.326266 -0.133267 -0.336579 0 127 127
0.244814 0.014151 0.006453 76 0 153
-0.344629 -0.590062 -0.279119 0 127 127
0.371590 -0.174236 -0.057048 153 76 0
0.367307 0.277970 -0.341095 76 153 0
-0.214631 0.014151 0.074012 76 0 153
-0.343785 -0.240610 -0.151354 76 0 153
-0.269194 0.011285 0.443428 76 0 153
0.038048 -0.089148 0.329364 0 0 255
0.362131 0.695369 -0.413280 76 153 0
-0.320595 -0.635705 0.399964 153 0 76
-0.290516 -0.252693 0.348201 76 0 153
0.214662 -0.029811 -0.341001 0 0 255
0.286633 -0.457986 0.404125 76 0 153
0.340353 -0.149430 0.238331 153 76 0
0.191050 -0.167917 0.487727 153 0 76
-0.041038 0.357858 -0.329780 153 76 0
0.310522 -0.838897 0.425145 76 0 153
-0.031190 0.014151 -0.116008 76 0 153
-0.389745 0.011650 0.155013 76 0 153
-0.335084 0.139899 -0.350113 0 127 127
-0.202832 0.004737 -0.307853 76 0 153
-0.091842 0.007765 0.495987 76 0 153
0.188981 0.612906 -0.429876 153 0 76
0.354491 -0.155945 -0.327433 76 153 0
0.334714 0.101681 -0.348108 76 153 0
0.011691 0.014151 0.187922 76 0 153
-0.201774 0.664606 -0.426410 153 0 76
0.024442 0.819218 -0.495273 153 0 76
-0.259488 -0.089148 0.207933 0 0 255
0.411513 0.002791 -0.050638 76 0 153
-0.322853 0.014151 -0.057608 76 0 153
-0.306489 0.805861 -0.406928 153 0 76
0.139339 -0.089148 0.099327 0 0 255
0.062611 0.014151 -0.282445 76 0 153
0.214708 -0.029811 0.391162 0 0 255
0.354273 0.014151 0.238553 76 0 153
-0.345893 0.489445 -0.323764 0 127 127
0.336160 -0.261126 -0.183687 153 76 0
0.088860 0.014151 -0.007294 76 0 153
-0.003013 -0.119800 0.491247 153 0 76
0.238676 0.014151 -0.151408 76 0 153
-0.341172 -0.089148 -0.183224 0 0 255
0.299212 -0.089148 0.103271 0 0 255
-0.103157 -0.089148 0.175018 0 0 255
0.332927 0.840882 -0.394504 153 0 76
-0.310333 -0.132096 0.432957 153 0 76
0.422678 0.641034 -0.288789 153 0 76
-0.306364 0.014151 0.300420 76 0 153
-0.017967 -0.089148 -0.218317 0 0 255
-0.099145 -0.089148 0.376756 0 0 255
0.324076 -0.129227 0.446247 76 0 153
-0.162648 -0.089148 -0.008434 0 0 255
-0.353742 0.004252 -0.329836 0 127 127
0.436032 -0.089148 0.315573 0 0 255
0.310060 -0.466305 -0.320459 76 153 0
-0.406731 0.724180 -0.291139 153 0 76
0.353058 -0.706341 -0.342762 76 153 0
0.175210 -0.089148 -0.039899 0 0 255
0.083002 -0.089148 -0.363343 0 0 255
0.260070 -0.089148 -0.230965 0 0 255
-0.431410 -0.061151 -0.059660 76 0 153
-0.351795 -0.250648 -0.283177 0 127 127
-0.224973 -0.089148 0.334439 0 0 255
-0.098105 0.014151 -0.229784 76 0 153
0.007772 0.014151 0.406043 76 0 153
0.040216 -0.089148 -0.067459 0 0 255
-0.087892 0.014151 0.096344 76 0 153
-0.265045 0.014151 -0.181488 76 0 153
0.110654 -0.089148 0.223981 0 0 255
0.311315 0.392327 -0.339131 76 153 0
-0.194787 0.014151 -0.073079 76 0 153
0.294644 -0.089148 -0.107613 0 0 255
0.236686 -0.089148 0.278484 0 0 255
0.111411 0.014151 0.331447 76 0 153
-0.374022 -0.113994 0.167101 76 0 153
0.103808 0.705979 -0.466100 153 0 76
-0.085014 0.719757 -0.440196 153 0 76
0.348918 -0.030262 -0.336523 76 153 0
0.423972 -0.089148 -0.135068 0 0 255
-0.346698 -0.480391 -0.332002 0 127 127
0.063821 0.301433 -0.308968 153 76 0
-0.339811 -0.172762 0.270497 76 0 153
0.209344 -0.044842 0.510614 0 0 255
-0.315879 -0.706864 -0.293619 0 127 127
0.400074 -0.126603 0.048793 153 76 0
0.108809 -0.089148 0.425672 0 0 255
-0.138117 -0.089148 -0.273568 0 0 255
0.348675 0.014151 0.066418 76 0 153
0.263421 0.176078 -0.288774 153 76 0
-0.271001 -0.089148 0.088893 0 0 255
0.242010 0.014151 0.126365 76 0 153
-0.159379 0.014151 0.398979 76 0 153
-0.284472 -0.329067 0.437503 153 0 76
-0.193052 -0.051459 0.506523 0 0 255
0.090544 0.014151 -0.125838 76 0 153
-0.079704 -0.089148 -0.093535 0 0 255
-0.269970 -0.089148 -0.057270 0 0 255
-0.270300 -0.737197 0.420985 153 0 76
0.222970 0.520484 -0.371313 76 0 153
0.323224 0.605056 -0.354496 76 153 0
-0.406634 -0.005197 0.036802 76 0 153
-0.250592 -0.089148 -0.255161 0 0 255
-0.216613 0.014151 0.189875 76 0 153
0.116602 0.014151 0.139635 76 0 153
-0.092158 0.014151 -0.020941 76 0 153
0.250471 0.701958 -0.399034 153 0 76
-0.369241 -0.032788 0.417727 0 0 255
0.397396 0.754601 -0.324658 153 0 76
0.167600 0.014151 -0.244662 76 0 153
-0.366243 -0.147660 -0.085673 76 0 153
-0.053848 -0.055671 0.273983 76 0 153
0.381518 0.093721 -0.247646 153 76 0
0.033701 -0.089148 0.144621 0 0 255
-0.304019 0.240982 -0.317968 0 127 127
0.329132 -0.089148 0.343647 0 0 255
0.279260 0.014151 -0.263438 76 0 153
-0.039425 0.013725 -0.323084 76 0 153
-0.251168 -0.226087 0.454011 153 0 76
0.266385 0.014151 0.303362 76 0 153
0.145950 -0.089148 -0.274413 0 0 255
-0.102664 0.612829 -0.430287 153 0 76
0.424787 -0.089148 0.205478 0 0 255
0.307034 -0.249803 -0.287946 76 153 0
-0.255148 0.579951 -0.386594 153 76 0
-0.286003 0.707263 -0.369096 153 0 76
0.277938 -0.349008 0.403275 153 0 76
-0.247528 0.146386 -0.289736 76 0 153
-0.316888 -0.323998 -0.214252 76 0 153
-0.311532 -0.530222 0.388439 153 0 76
0.281077 -0.089148 -0.002680 0 0 255
0.016229 0.014151 0.078332 76 0 153
-0.093472 0.451124 -0.338364 153 76 0
0.290771 -0.564185 0.416664 76 0 153
-0.406989 -0.002578 0.257854 76 0 153
0.212866 -0.089148 0.174456 0 0 255
0.286989 0.002263 0.459565 76 0 153
0.306391 -0.736722 0.443758 76 0 153
-0.068757 0.260239 -0.308830 76 0 153
-0.167631 -0.089148 0.094371 0 0 255
0.266845 -0.234811 0.464824 153 0 76
0.140467 -0.089148 0.323499 0 0 255
-0.331684 0.087278 -0.262188 76 0 153
-0.210541 0.768806 -0.414526 153 0 76
-0.317391 0.014151 0.082349 76 0 153
0.337479 0.014151 -0.119703 76 0 153
0.319710 -0.212436 0.318201 153 76 0
0.014841 0.014151 0.300062 76 0 153
-0.095241 -0.089148 0.522495 0 0 255
-0.003457 -0.029815 0.535879 0 0 255
-0.155799 -0.089148 0.261763 0 0 255
0.178985 0.014151 -0.071350 76 0 153
-0.383072 0.743526 -0.385591 0 127 127
0.340883 -0.403852 -0.248134 153 76 0
0.054940 0.397413 -0.329074 76 0 153
0.118737 -0.089148 0.523140 0 0 255
0.072401 -0.089148 0.025026 0 0 255
-0.084511 0.014151 0.194826 76 0 153
-0.310571 0.405766 -0.357842 0 127 127
-0.071929 0.014151 0.344619 76 0 153
-0.386748 -0.013923 -0.131414 76 0 153
0.445543 0.003008 -0.150712 153 76 0
0.306293 -0.055671 0.194840 76 0 153
-0.128319 -0.032803 -0.353787 0 0 255
-0.125768 0.014151 -0.138029 76 0 153
0.429288 -0.089148 -0.036912 0 0 255
0.094510 0.613389 -0.427298 153 0 76
0.366073 0.187201 -0.315942 76 153 0
0.138761 0.014151 0.423642 76 0 153
-0.317874 -0.089148 0.344754 0 0 255
-0.003455 0.014151 -0.205136 76 0 153
-0.308495 0.014151 0.207192 76 0 153
-0.421984 -0.073525 0.098353 0 0 255
0.163902 0.014151 0.051308 76 0 153
-0.273637 -0.029811 0.013987 0 0 255
-0.225824 -0.089148 0.426657 0 0 255
-0.000603 0.727058 -0.477861 153 0 76
0.415471 0.000428 0.318473 76 0 153
0.221526 -0.055671 0.067432 76 0 153
-0.205397 -0.082162 -0.336671 0 0 255
0.345009 -0.089148 -0.265495 0 0 255
-0.345384 -0.013775 -0.234428 76 0 153
0.054825 -0.089148 -0.275503 0 0 255
0.089962 0.014151 0.233810 76 0 153
-0.220520 0.014151 0.329587 76 0 153
-0.000011 0.014151 -0.030894 76 0 153
-0.191738 -0.029811 -0.216459 0 0 255
-0.354668 0.549974 -0.390451 0 127 127
-0.312577 -0.436328 -0.257457 76 0 153
-0.039902 -0.055671 0.439199 76 0 153
0.368604 -0.183912 -0.146909 153 76 0
-0.057605 0.804899 -0.460520 153 0 76
0.383267 0.014151 0.151254 76 0 153
-0.385878 0.637409 -0.299042 153 0 76
0.019010 -0.089148 0.234274 0 0 255
0.207928 -0.089148 -0.126963 0 0 255
0.027483 -0.055671 -0.148748 76 0 153
0.106518 0.828279 -0.461801 153 0 76
0.125274 -0.014661 -0.340677 76 0 153
0.327366 0.014151 -0.025044 76 0 153
-0.364494 0.819207 -0.341685 153 0 76
0.397307 -0.089148 0.408643 0 0 255
-0.334603 -0.055671 0.256315 76 0 153
0.372596 -0.121543 0.137005 153 76 0
-0.092091 -0.055671 -0.177289 76 0 153
0.364318 -0.055671 0.014368 76 0 153
0.021405 -0.029811 -0.365759 0 0 255
0.083721 -0.029811 -0.212143 0 0 255
0.271511 0.800105 -0.437587 153 0 76
0.365092 -0.322875 -0.235029 153 76 0
-0.126172 -0.055671 0.450312 76 0 153
-0.388038 0.001021 0.341896 76 0 153
-0.100084 -0.055671 0.048163 76 0 153
0.243176 -0.089148 0.446673 0 0 255
-0.275797 -0.055671 -0.135275 76 0 153
-0.422391 -0.079613 0.227282 0 0 255
0.278689 -0.088426 -0.317068 0 0 255
-0.315457 -0.055671 0.152301 76 0 153
0.290592 -0.191690 0.393948 76 0 153
-0.041154 -0.055671 0.123493 76 0 153
0.345343 -0.398674 0.404310 76 0 153
-0.355882 -0.055671 -0.024692 76 0 153
-0.280449 -0.018342 -0.287948 76 0 153
0.323825 0.758996 -0.375947 153 0 76
0.114167 -0.055671 -0.087450 76 0 153
0.355991 -0.089148 -0.183532 0 0 255
-0.299354 -0.516997 -0.275088 76 0 153
0.422702 0.000720 0.032444 76 0 153
-0.157443 -0.029811 0.150536 0 0 255
0.042000 -0.055671 0.460237 76 0 153
-0.339553 -0.643992 -0.341040 0 127 127
-0.212547 -0.029811 0.259560 0 0 255
0.184470 0.699231 -0.447669 153 0 76
0.248259 -0.029811 -0.062697 0 0 255
0.189323 -0.055671 -0.206803 76 0 153
0.265208 0.014151 0.206186 76 0 153
0.302015 0.014151 0.376744 76 0 153
-0.334176 -0.089148 -0.268703 0 0 255
0.430226 -0.005430 0.217382 76 0 153
-0.296666 -0.060453 0.469611 0 0 255
0.366384 -0.055671 0.278040 76 0 153
-0.050989 -0.055671 -0.019763 76 0 153
0.360335 -0.055671 -0.073480 76 0 153
0.371921 -0.773538 -0.301811 76 153 0
0.364006 0.672162 -0.334927 153 0 76
0.086665 -0.029811 0.079784 0 0 255
0.348199 -0.508985 0.402516 76 0 153
-0.308471 -0.388857 0.387381 153 0 76
-0.272189 -0.581662 0.435304 153 0 76
0.405959 0.826399 -0.365742 153 0 76
-0.030259 -0.055671 0.354937 76 0 153
-0.067533 -0.055671 -0.288882 76 0 153
0.072661 -0.029811 0.387474 0 0 255
0.247095 0.601520 -0.376106 76 0 153
0.159616 0.014151 -0.165869 76 0 153
0.316583 -0.055671 0.414647 76 0 153
0.312391 -0.642175 -0.321221 76 153 0
-0.269891 -0.181915 0.387283 153 0 76
-0.311058 0.628942 -0.344251 153 0 76
-0.345050 -0.055671 0.053066 76 0 153
0.352699 0.031897 -0.288908 76 153 0
-0.169021 0.014151 0.010324 76 0 153
0.189705 0.014151 0.329820 76 0 153
-0.314579 0.014151 0.379772 76 0 153
0.209729 0.014151 0.457808 76 0 153
0.251657 -0.089148 0.356424 0 0 255
0.300807 -0.029811 -0.172745 0 0 255
-0.154754 -0.055671 0.331990 76 0 153
0.159999 -0.086733 -0.353686 0 0 255
0.374897 -0.055671 0.091120 76 0 153
-0.149207 -0.055671 -0.093126 76 0 153
-0.298106 -0.199344 -0.303985 0 127 127
0.179050 -0.029811 0.132600 0 0 255
0.368215 -0.513789 -0.305115 76 153 0
-0.068056 0.014151 0.420781 76 0 153
-0.196417 0.013639 0.465930 76 0 153
0.147629 -0.055671 0.025884 76 0 153
-0.246692 -0.029811 0.129585 0 0 255
-0.399631 -0.088669 -0.134430 0 0 255
0.363750 -0.784858 0.425474 76 0 153
0.140619 -0.029811 0.276294 0 0 255
0.306463 0.235397 -0.326351 76 153 0
-0.182578 -0.089148 0.190255 0 0 255
0.002705 -0.029811 -0.268638 0 0 255
-0.160395 0.726023 -0.451208 153 0 76
-0.418011 -0.078123 0.021572 0 0 255
-0.241390 0.832118 -0.441302 153 0 76
0.306366 -0.391624 -0.314135 76 153 0
0.316241 0.117798 -0.277578 153 76 0
-0.311562 -0.254731 0.420936 153 0 76
-0.227784 -0.089148 0.027526 0 0 255
0.061040 0.767602 -0.456263 153 0 76
-0.242509 -0.029811 0.385069 0 0 255
-0.301375 0.064291 -0.325558 0 127 127
-0.367516 -0.759128 -0.301646 0 127 127
0.100827 -0.055671 0.157836 76 0 153
-0.333509 -0.301681 -0.333335 0 127 127
0.322217 0.457777 -0.372074 76 153 0
0.288645 -0.029811 0.052547 0 0 255
-0.011689 0.014151 0.477639 76 0 153
-0.043032 0.014151 0.033589 76 0 153
0.316847 0.323586 -0.314747 76 153 0
-0.321122 -0.060216 -0.338420 0 127 127
0.444497 -0.070575 0.031692 0 0 255
-0.261436 0.014151 -0.101686 76 0 153
-0.273813 -0.089148 0.280820 0 0 255
0.029149 -0.029811 0.018803 0 0 255
0.173924 -0.055671 0.448333 76 0 153
0.422306 0.047513 -0.202960 153 76 0
-0.197651 0.014151 -0.147056 76 0 153
0.338246 0.014151 0.311485 76 0 153
-0.393855 0.000566 -0.059086 76 0 153
-0.042716 -0.055671 0.195905 76 0 153
-0.360094 0.196262 -0.312091 0 127 127
0.016638 -0.089148 0.398038 0 0 255
-0.321971 -0.784783 0.406238 153 0 76
-0.047693 0.014151 0.258624 76 0 153
-0.322921 -0.118868 0.223342 76 0 153
-0.337616 0.014151 0.013625 76 0 153
-0.329543 -0.191600 0.338791 76 0 153
0.069580 -0.119756 0.481117 153 0 76
-0.116891 0.014151 -0.301045 76 0 153
0.375239 -0.055671 0.164705 76 0 153
-0.300105 -0.322025 0.362566 76 0 153
0.453545 -0.043900 -0.086490 153 76 0
-0.108602 -0.130336 0.465434 153 0 76
0.069921 -0.029811 0.289787 0 0 255
0.327910 0.540710 -0.384394 76 153 0
0.223417 -0.029811 -0.263800 0 0 255
0.176358 -0.089148 0.385289 0 0 255
0.045922 -0.080994 0.535522 0 0 255
-0.327441 -0.089148 -0.098361 0 0 255
0.305944 -0.089148 0.263865 0 0 255
0.179755 -0.089148 0.237128 0 0 255
0.311225 0.014151 0.138785 76 0 153
-0.323614 -0.252761 -0.217569 76 0 153
-0.353763 0.693814 -0.325754 153 0 76
-0.324258 -0.554381 -0.335825 0 127 127
0.443866 0.706414 -0.304131 153 0 76
-0.362099 -0.118241 0.098341 76 0 153
-0.360339 -0.407564 -0.312271 0 127 127
-0.305104 -0.683418 0.448815 153 0 76
0.383992 -0.029811 -0.148720 0 0 255
-0.017784 -0.055671 -0.086848 76 0 153
-0.214110 -0.029811 -0.022150 0 0 255
-0.242223 -0.280380 0.411242 153 0 76
0.336355 -0.330021 0.370797 153 76 0
-0.433834 0.786269 -0.313967 153 0 76
0.305647 0.657725 -0.395938 76 0 153
0.388224 0.762054 -0.401156 76 153 0
0.299578 -0.063457 0.481229 0 0 255
0.310227 -0.548894 -0.318774 76 153 0
-0.424013 -0.047297 0.165846 0 0 255
0.370534 0.357421 -0.345338 76 153 0
-0.153915 -0.089148 -0.206438 0 0 255
0.371593 0.425990 -0.335980 76 153 0
0.294881 -0.294943 0.442458 153 0 76
-0.032596 -0.089148 -0.147194 0 0 255
-0.319516 0.014151 -0.138432 76 0 153
0.377624 0.628647 -0.389132 76 153 0
-0.342636 0.695474 -0.413151 0 127 127
-0.006739 -0.089148 -0.308685 0 0 255
0.049976 -0.089148 -0.203851 0 0 255
-0.132995 -0.029811 0.226127 0 0 255
0.213640 -0.089148 -0.297327 0 0 255
0.146287 -0.029811 0.371290 0 0 255
-0.287449 -0.055671 -0.207912 76 0 153
-0.239739 0.014151 -0.244464 76 0 153
0.355195 -0.154161 0.304187 153 76 0
-0.031277 0.014151 0.133413 76 0 153
-0.009962 0.298685 -0.320861 76 0 153
-0.373065 -0.029811 0.206405 0 0 255
-0.244967 0.645891 -0.377295 153 0 76
0.368850 -0.122463 -0.014063 153 76 0
0.136801 -0.132468 0.468876 153 0 76
0.112523 -0.029811 -0.272932 0 0 255
-0.219232 -0.055671 -0.085890 76 0 153
-0.161195 -0.029811 0.063526 0 0 255
0.322157 -0.185494 -0.276082 76 153 0
-0.172522 -0.055671 0.401884 76 0 153
0.199548 -0.029811 -0.015905 0 0 255
-0.305428 -0.055671 0.401294 76 0 153
0.199828 -0.055671 0.330820 76 0 153
0.365554 -0.430384 -0.311383 76 153 0
-0.096274 -0.089148 0.106375 0 0 255
-0.384042 -0.089148 0.384662 0 0 255
-0.326948 0.764930 -0.356588 153 0 76
0.035991 0.014151 -0.087633 76 0 153
-0.345184 -0.334284 -0.276466 0 127 127
0.387215 -0.055671 0.345649 76 0 153
0.059112 0.014151 0.448082 76 0 153
0.319809 -0.696114 0.391740 76 0 153
0.045396 0.685761 -0.442347 153 0 76
-0.308652 0.299059 -0.349390 0 127 127
-0.134489 0.669927 -0.420041 153 0 76
-0.362938 0.262726 -0.338786 0 127 127
-0.099424 -0.089148 0.308294 0 0 255
0.350647 -0.222423 -0.329125 76 153 0
0.262151 -0.089148 -0.165102 0 0 255
-0.054658 0.657840 -0.433405 153 0 76
0.257676 -0.029811 0.254594 0 0 255
0.149076 -0.029811 0.196636 0 0 255
0.158414 -0.003990 0.502617 76 0 153
0.020612 -0.055671 0.086588 76 0 153
0.443461 -0.055672 0.259532 0 0 255
0.131209 0.768560 -0.472956 153 0 76
-0.329789 -0.180771 -0.128822 76 0 153
-0.353399 0.452010 -0.376922 0 127 127
-0.346074 -0.159846 -0.280255 0 127 127
-0.298987 -0.089148 0.003671 0 0 255
0.217038 -0.089148 0.011505 0 0 255
0.310240 -0.314909 -0.283938 76 153 0
0.357032 -0.089148 0.218685 0 0 255
0.052647 -0.029811 -0.042077 0 0 255
-0.220511 -0.089148 0.136507 0 0 255
-0.145743 -0.029811 -0.031835 0 0 255
0.246723 -0.055671 0.127565 76 0 153
0.308176 0.164339 -0.335010 76 153 0
-0.081805 -0.089148 -0.232073 0 0 255
-0.292389 0.014151 0.143654 76 0 153
0.352208 -0.680269 -0.283425 76 153 0
-0.315809 -0.463212 0.397403 153 0 76
-0.262075 0.014151 -0.035526 76 0 153
-0.364592 -0.029811 0.109018 0 0 255
0.350504 -0.584396 0.402526 76 0 153
-0.246096 -0.349112 0.389690 153 0 76
-0.267040 -0.510099 0.430369 153 0 76
-0.384919 -0.039844 -0.190297 0 0 255
-0.363982 0.592612 -0.343558 0 127 127
0.363709 -0.277797 -0.297755 76 153 0
0.451861 0.782503 -0.306164 153 0 76
0.293683 -0.629305 0.418721 76 0 153
0.184331 -0.029811 -0.124057 0 0 255
0.343453 -0.468595 -0.265306 76 153 0
0.378292 0.568210 -0.356539 76 153 0
0.138618 0.654953 -0.450161 153 0 76
0.276863 0.014151 -0.098949 76 0 153
-0.275888 -0.029811 0.252345 0 0 255
0.012526 -0.089148 -0.010070 0 0 255
0.111065 -0.089148 -0.033368 0 0 255
0.097127 0.247237 -0.311910 153 76 0
0.308459 -0.039723 -0.282053 76 0 153
-0.267093 -0.029811 0.324452 0 0 255
0.053107 0.014151 0.135310 76 0 153
-0.001715 -0.029811 0.248302 0 0 255
0.200093 0.177176 -0.300366 153 76 0
-0.132380 -0.034325 0.520736 0 0 255
-0.105053 -0.089148 -0.035363 0 0 255
-0.351667 -0.829557 -0.292037 0 127 127
-0.065460 0.014151 -0.169232 76 0 153
-0.360668 0.085172 -0.318399 0 127 127
-0.076364 -0.029811 -0.071559 0 0 255
0.028690 0.014151 -0.150726 76 0 153
-0.191589 -0.055671 -0.277184 76 0 153
0.339621 -0.092608 -0.337240 76 153 0
-0.274824 0.751301 -0.412775 153 0 76
0.319378 -0.759600 -0.333630 76 153 0
-0.042110 0.014151 -0.258541 76 0 153
-0.129620 0.014151 -0.073896 76 0 153
0.181806 0.012160 -0.307585 76 0 153
-0.110802 -0.089148 -0.332023 0 0 255
0.433175 -0.089148 0.143170 0 0 255
-0.165645 0.613233 -0.428130 153 0 76
-0.196620 -0.197560 0.441582 153 0 76
-0.360024 -0.529692 -0.290518 0 127 127
0.311106 0.045179 -0.334270 76 153 0
0.116176 0.014151 -0.063810 76 0 153
0.076581 -0.089148 0.098146 0 0 255
-0.375839 -0.118687 -0.030579 76 0 153
0.234658 0.745604 -0.441124 153 0 76
-0.108920 -0.029811 0.396126 0 0 255
0.234794 0.014151 -0.213756 76 0 153
-0.364291 0.394545 -0.328122 0 127 127
-0.263677 -0.073508 -0.316151 0 0 255
0.222198 -0.029811 0.196821 0 0 255
-0.235869 -0.089148 -0.192947 0 0 255
-0.134619 -0.029811 -0.255408 0 0 255
-0.197242 0.562230 -0.367022 153 76 0
0.053106 -0.029811 0.201987 0 0 255
0.329164 -0.213111 0.437443 76 0 153
-0.265917 -0.029811 0.191259 0 0 255
0.408930 0.011417 0.095025 76 0 153
0.243439 -0.173429 0.455336 153 0 76
-0.099114 -0.089148 0.237407 0 0 255
0.267009 -0.029811 0.349884 0 0 255
0.151358 -0.089148 0.168841 0 0 255
0.085417 -0.089148 0.284142 0 0 255
0.156899 0.014151 -0.010189 76 0 153
0.108037 -0.029811 0.455762 0 0 255
0.237518 -0.089148 -0.051018 0 0 255
0.071359 -0.089148 -0.121838 0 0 255
-0.361123 -0.704073 -0.334894 0 127 127
-0.330858 0.142905 -0.289118 0 127 127
0.011381 -0.029811 0.143760 0 0 255
-0.338061 -0.650861 -0.280231 0 127 127
-0.304303 -0.431771 -0.317859 0 127 127
-0.313119 -0.757429 -0.329453 0 127 127
0.332509 -0.342395 0.430495 76 0 153
-0.030582 -0.086777 0.534538 0 0 255
-0.318453 0.540881 -0.342198 0 127 127
0.028889 -0.029811 0.345084 0 0 255
-0.053112 -0.029811 -0.217834 0 0 255
-0.096559 -0.029811 0.149224 0 0 255
-0.357328 -0.055671 0.312755 76 0 153
0.300947 -0.111135 0.392991 76 0 153
0.256858 -0.089148 0.221209 0 0 255
0.374938 -0.823757 -0.335908 76 153 0
0.328809 -0.266764 0.343510 153 76 0
-0.195032 0.014151 0.131361 76 0 153
-0.326875 0.030286 -0.282334 0 127 127
-0.236314 -0.089148 0.487572 0 0 255
-0.299994 -0.369271 -0.255775 76 0 153
0.182244 0.476883 -0.357275 76 0 153
-0.280456 -0.790109 0.450104 153 0 76
-0.108937 0.776719 -0.446103 153 0 76
-0.214483 -0.089148 0.248054 0 0 255
0.068910 -0.029811 -0.325824 0 0 255
-0.290499 -0.687788 0.390628 153 0 76
-0.156521 0.014151 0.191895 76 0 153
0.107202 -0.089148 -0.223337 0 0 255
-0.111986 0.014151 0.041297 76 0 153
-0.309259 0.356283 -0.323840 0 127 127
-0.300925 0.653393 -0.398091 153 76 0
-0.218874 -0.055671 0.083219 76 0 153
-0.306309 -0.195997 0.432742 153 0 76
-0.376972 -0.055671 -0.089558 76 0 153
-0.131795 0.014151 0.344158 76 0 153
-0.158333 0.014151 -0.192188 76 0 153
-0.275509 -0.106749 0.391447 153 0 76
0.245108 0.014151 0.066674 76 0 153
-0.103507 -0.029811 0.312890 0 0 255
-0.040636 -0.029811 -0.363842 0 0 255
0.199661 -0.029811 0.268912 0 0 255
-0.215121 0.196207 -0.289636 76 0 153
-0.059100 -0.037976 0.515156 76 0 153
0.020556 -0.089148 -0.363436 0 0 255
0.090140 -0.089148 0.357878 0 0 255
-0.024763 -0.029811 -0.165730 0 0 255
-0.314914 -0.029811 -0.096605 0 0 255
0.314488 -0.089148 -0.051613 0 0 255
-0.232411 0.706912 -0.394158 153 0 76
0.324523 0.014151 -0.213320 76 0 153
-0.278119 -0.029811 0.077633 0 0 255
-0.375765 0.763250 -0.322915 153 0 76
0.318072 -0.089148 0.047294 0 0 255
0.290276 -0.029811 -0.011601 0 0 255
-0.296095 -0.837758 0.409829 153 0 76
0.284523 -0.254366 0.400811 76 0 153
0.252525 0.014151 0.413117 76 0 153
-0.263972 -0.641333 0.415378 153 0 76
-0.056238 -0.101369 0.473942 153 0 76
-0.345719 -0.082348 0.439190 0 0 255
-0.329924 -0.727665 0.418131 153 0 76
0.114648 0.407553 -0.343791 76 0 153
-0.173729 0.014151 -0.255757 76 0 153
0.303703 -0.029811 0.291790 0 0 255
-0.126601 0.254444 -0.299955 76 0 153
0.126086 -0.029811 -0.142017 0 0 255
-0.126388 0.014151 0.448980 76 0 153
-0.123894 -0.089148 -0.141108 0 0 255
-0.012584 -0.089148 0.299865 0 0 255
-0.355320 -0.201980 -0.319861 0 127 127
0.019973 0.349006 -0.320556 76 0 153
-0.239474 -0.029811 0.472572 0 0 255
0.323403 -0.029811 0.102359 0 0 255
0.408010 -0.063799 -0.191203 0 0 255
-0.339001 0.759314 -0.420375 0 127 127
0.332302 -0.029811 0.353293 0 0 255
-0.305688 -0.288243 -0.283912 0 127 127
0.239668 0.639779 -0.419595 153 0 76
0.340870 -0.453587 0.424548 76 0 153
-0.381058 -0.089148 0.267005 0 0 255
0.370289 -0.638137 -0.319226 76 153 0
0.291941 -0.404687 0.426422 76 0 153
-0.033838 -0.029811 0.070273 0 0 255
0.319760 -0.055671 -0.225602 76 0 153
0.370051 -0.048422 0.439977 0 0 255
0.146467 -0.029811 0.084454 0 0 255
0.018258 0.013044 -0.325785 76 0 153
0.441391 -0.030110 -0.013860 0 0 255
0.173515 -0.089148 0.501646 0 0 255
0.424266 -0.089148 0.085386 153 76 0
0.359965 -0.727515 0.420907 76 0 153
-0.012381 0.014151 0.352208 76 0 153
0.447743 -0.034075 0.169153 0 0 255
0.340497 -0.161468 0.401591 76 0 153
0.120332 -0.029811 -0.026651 0 0 255
0.349688 -0.089148 -0.126465 0 0 255
-0.230007 -0.029811 -0.170428 0 0 255
-0.265226 -0.387135 0.429732 153 0 76
-0.175006 -0.089148 0.467668 0 0 255
0.287863 0.739810 -0.419436 153 0 76
0.376680 -0.136087 0.193040 153 76 0
0.302483 -0.142604 -0.308403 76 153 0
0.325520 0.702083 -0.364375 153 0 76
-0.291580 -0.589400 0.382359 153 0 76
0.061736 0.014151 0.042704 76 0 153
0.258557 -0.017136 -0.307137 76 0 153
-0.301529 0.181000 -0.319482 0 127 127
0.184950 0.014151 0.168158 76 0 153
-0.319481 -0.244177 -0.332758 0 127 127
0.195729 -0.089148 0.106436 0 0 255
0.338076 -0.594745 -0.339007 76 153 0
-0.330528 -0.029811 -0.177639 0 0 255
-0.144150 0.014151 0.103448 76 0 153
0.049411 0.014151 -0.227407 76 0 153
0.158419 -0.089148 -0.098584 0 0 255
0.392453 0.009953 -0.103423 76 0 153
0.062405 -0.089148 0.194659 0 0 255
-0.000988 0.781996 -0.461349 153 0 76
-0.255043 -0.145181 0.427417 153 0 76
-0.344729 -0.029811 0.361244 0 0 255
-0.146963 0.456362 -0.355131 153 76 0
-0.247850 0.014151 0.280371 76 0 153
-0.092747 -0.029811 -0.126137 0 0 255
0.360687 0.087689 -0.300233 76 153 0
-0.238677 0.014151 0.015932 76 0 153
-0.215801 -0.089148 -0.040880 0 0 255
-0.321858 -0.007203 0.436900 76 0 153
-0.414724 -0.037567 0.301482 0 0 255
0.270021 -0.029811 -0.226412 0 0 255
-0.434154 -0.033326 -0.108121 76 0 153
-0.351373 -0.033844 -0.288932 0 127 127
0.107278 0.014151 -0.185589 76 0 153
-0.056758 0.750384 -0.477417 153 0 76
0.227294 0.833800 -0.432320 153 0 76
0.317449 -0.793561 0.456982 76 0 153
-0.316569 0.494215 -0.372757 0 127 127
0.311092 -0.029811 -0.077065 0 0 255
0.139279 -0.029811 -0.208833 0 0 255
-0.347872 0.014151 0.263344 76 0 153
0.378898 -0.029811 0.214991 0 0 255
0.034749 0.014151 0.240463 76 0 153
0.369857 0.014151 0.010800 76 0 153
0.242236 -0.029811 0.467663 0 0 255
0.100561 -0.089148 -0.310658 0 0 255
-0.081657 0.396995 -0.341541 153 76 0
-0.163976 -0.029811 -0.150304 0 0 255
0.302126 -0.513090 0.434464 76 0 153
0.337535 -0.733474 -0.285331 76 153 0
0.319772 0.502020 -0.339121 76 153 0
0.195235 0.014151 0.096775 76 0 153
0.365151 0.790461 -0.356273 153 0 76
0.079721 -0.052254 0.502720 76 0 153
0.029525 -0.029811 -0.200535 0 0 255
0.251860 -0.055671 -0.116776 76 0 153
0.325735 -0.522194 -0.271057 153 76 0
0.272930 -0.089148 0.166555 0 0 255
-0.405278 -0.032693 -0.016663 76 0 153
0.310853 -0.681869 0.445495 76 0 153
0.067543 -0.029811 -0.101171 0 0 255
-0.011579 -0.055671 0.487994 76 0 153
-0.188011 -0.029811 0.206321 0 0 255
0.362118 0.014151 -0.173311 76 0 153
-0.211840 -0.029811 0.034877 0 0 255
0.034303 0.001753 0.511621 76 0 153
-0.186693 0.833230 -0.435365 153 0 76
0.275696 0.014151 -0.043495 76 0 153
-0.426843 0.008870 -0.161013 76 0 153
-0.307034 -0.605637 -0.319308 0 127 127
0.359107 -0.831906 0.452945 76 0 153
-0.333218 0.289866 -0.301493 0 127 127
0.355429 0.240535 -0.302960 76 153 0
0.405434 0.011798 0.262764 76 0 153
0.327384 -0.089148 0.149932 0 0 255
-0.301727 -0.029811 -0.033411 0 0 255
0.322304 0.014151 0.194491 76 0 153
0.295809 0.014151 0.257612 76 0 153
0.095341 -0.029811 0.026108 0 0 255
0.181240 -0.089148 0.052888 0 0 255
0.182779 0.014151 0.391676 76 0 153
-0.330540 0.607288 -0.396546 0 127 127
0.201195 -0.055671 -0.079448 76 0 153
-0.272784 -0.089148 0.151595 0 0 255
0.336312 0.320593 -0.365698 76 153 0
0.303592 0.014151 0.024528 76 0 153
-0.334300 0.217717 -0.356476 0 127 127
-0.326375 0.843337 -0.371634 153 0 76
0.082125 -0.055671 -0.164684 76 0 153
-0.181447 0.014151 0.239869 76 0 153
-0.175815 0.777594 -0.456132 153 0 76
-0.380835 0.014151 0.082229 76 0 153
0.325893 -0.293558 -0.332901 76 153 0
-0.349359 -0.469043 -0.279375 0 127 127
-0.215117 0.014151 0.399725 76 0 153
-0.079219 -0.029811 0.227263 0 0 255
-0.181048 -0.033554 -0.343204 0 0 255
0.298119 0.014151 0.084340 76 0 153
-0.291804 0.014151 -0.231906 76 0 153
0.165927 -0.029811 -0.276508 0 0 255
0.377298 0.722023 -0.367397 76 153 0
0.040988 0.612434 -0.432397 153 0 76
0.184872 -0.089148 0.291679 0 0 255
-0.044068 0.014151 -0.061143 76 0 153
-0.330823 0.434797 -0.317483 0 127 127
0.157659 0.825442 -0.476948 153 0 76
-0.069553 -0.089148 0.017431 0 0 255
0.377498 -0.228675 -0.175202 153 76 0
0.082384 0.014151 0.180293 76 0 153
0.233305 -0.029811 -0.180728 0 0 255
-0.081023 -0.089148 0.426651 0 0 255
0.331165 0.009913 0.422449 76 0 153
-0.202025 -0.089148 -0.234041 0 0 255
0.207424 -0.089148 -0.243603 0 0 255
0.251039 -0.084400 0.498807 0 0 255
0.102034 0.014151 0.383531 76 0 153
-0.018935 -0.089148 0.157921 0 0 255
0.259484 -0.089148 0.045600 0 0 255
0.232426 0.014151 0.360978 76 0 153
0.058575 0.014151 0.331886 76 0 153
0.370856 0.014151 0.353059 76 0 153
0.110406 0.014151 -0.243803 76 0 153
-0.367780 -0.055671 0.158566 76 0 153
0.315502 -0.777728 0.405562 76 0 153
-0.268733 0.014151 0.353372 76 0 153
-0.399468 -0.105701 0.062398 76 0 153
-0.041124 0.608831 -0.451638 153 0 76
0.112587 0.014151 0.067009 76 0 153
-0.172138 -0.029811 0.449159 0 0 255
0.414209 -0.039053 0.387381 0 0 255
-0.087293 -0.002272 -0.341011 76 0 153
-0.287589 0.112964 -0.285286 76 0 153
-0.357309 0.014151 -0.097030 76 0 153
0.280242 -0.089148 0.309439 0 0 255
-0.052094 -0.029811 0.394834 0 0 255
-0.253024 0.014151 0.227441 76 0 153
0.326244 -0.029811 0.242738 0 0 255
0.403326 -0.089148 0.257674 0 0 255
-0.191453 -0.029811 0.360583 0 0 255
-0.306026 -0.422821 0.429102 153 0 76
-0.016857 -0.029811 0.311649 0 0 255
-0.234980 -0.031517 -0.327621 0 0 255
0.405109 -0.089148 -0.082992 0 0 255
-0.378710 0.693582 -0.371731 0 127 127
-0.084059 0.014151 -0.099845 76 0 153
-0.282548 0.014151 0.043847 76 0 153
-0.403757 -0.048137 0.354216 0 0 255
0.167467 0.746128 -0.433407 153 0 76
-0.318803 -0.089148 0.109003 0 0 255
0.340370 -0.358474 -0.273224 153 76 0
-0.040264 -0.089148 0.235389 0 0 255
-0.367806 -0.082841 -0.229800 0 0 255
-0.344673 0.014151 0.129609 76 0 153
-0.306235 -0.055671 0.213004 76 0 153
0.343800 0.212321 -0.355344 76 153 0
0.053336 -0.029811 -0.256756 0 0 255
0.269672 -0.029811 0.168982 0 0 255
0.360247 -0.271680 -0.229839 153 76 0
-0.305389 -0.128597 -0.286480 0 127 127
-0.258164 0.014151 0.104946 76 0 153
0.012358 -0.089148 -0.112421 0 0 255
-0.346144 0.369674 -0.369593 0 127 127
-0.236948 -0.089148 -0.121204 0 0 255
-0.011243 -0.029811 -0.318363 0 0 255
0.230768 0.014151 0.257572 76 0 153
-0.371543 0.062592 -0.238248 76 0 153
0.334358 0.552675 -0.334372 76 153 0
-0.157745 -0.089148 0.043729 0 0 255
0.303069 -0.526167 0.384034 76 0 153
0.376574 -0.029811 -0.031338 0 0 255
-0.351451 -0.349307 -0.325361 0 127 127
-0.323525 -0.089148 -0.046996 0 0 255
-0.369290 0.532477 -0.344273 0 127 127
0.222248 0.014151 -0.039804 76 0 153
-0.356702 -0.055671 -0.136865 76 0 153
-0.356678 -0.095502 -0.319413 0 127 127
0.008680 -0.055671 0.194417 76 0 153
0.067327 -0.055671 0.244057 76 0 153
0.384350 -0.159266 -0.104658 153 76 0
-0.141021 -0.089148 0.140316 0 0 255
0.140132 0.014151 -0.112620 76 0 153
0.383797 -0.074474 -0.235291 0 0 255
-0.191137 -0.029811 0.306172 0 0 255
-0.418549 0.676636 -0.306307 153 0 76
-0.132845 -0.029811 -0.198986 0 0 255
-0.253880 -0.231202 0.402728 153 0 76
-0.078898 -0.029811 0.460111 0 0 255
0.171689 0.014151 0.279677 76 0 153
-0.156777 -0.086478 0.515459 0 0 255
-0.103386 -0.029811 0.002789 0 0 255
-0.372054 -0.089148 0.216636 0 0 255
0.138729 -0.089148 0.267694 0 0 255
0.113310 0.014151 0.280328 76 0 153
0.191121 0.663648 -0.411566 153 0 76
0.005119 -0.029811 0.436061 0 0 255
0.118909 0.014151 -0.298206 76 0 153
0.312111 -0.694081 -0.311928 76 153 0
-0.210248 0.617811 -0.403689 153 0 76
-0.089573 0.014151 0.287790 76 0 153
0.328116 0.448937 -0.322173 76 153 0
0.400406 0.634358 -0.334167 153 0 76
0.337295 -0.224406 0.370539 153 76 0
0.298055 -0.172953 0.441301 76 0 153
-0.029961 0.702215 -0.444483 153 0 76
-0.118576 -0.055671 0.271706 76 0 153
0.331182 -0.029811 0.154879 0 0 255
0.317547 0.796713 -0.416306 153 0 76
-0.113174 -0.029811 0.099422 0 0 255
-0.145931 -0.055671 -0.310961 76 0 153
0.153848 -0.029811 -0.067918 0 0 255
0.258443 -0.055671 0.411794 76 0 153
0.139226 -0.052462 0.494756 76 0 153
-0.263505 -0.549374 0.395656 153 0 76
-0.307826 -0.055671 0.301989 76 0 153
-0.184286 -0.089148 0.304302 0 0 255
0.361633 -0.036046 -0.261553 0 0 255
0.361671 0.138268 -0.303814 76 153 0
0.348082 0.397603 -0.373473 76 153 0
-0.412494 -0.019416 0.121478 76 0 153
-0.221207 -0.055671 0.178334 76 0 153
0.003214 -0.089148 0.451610 0 0 255
-0.292706 -0.089148 -0.169081 0 0 255
-0.345859 -0.161065 -0.041486 76 0 153
-0.254495 -0.029811 -0.059115 0 0 255
0.363197 -0.055671 0.389953 76 0 153
0.278877 0.014151 -0.183860 76 0 153
0.345875 0.585827 -0.397449 76 153 0
-0.354272 -0.594635 -0.332382 0 127 127
-0.037909 -0.089148 0.391578 0 0 255
-0.150946 0.003105 0.492899 76 0 153
0.375734 -0.107303 0.088972 153 76 0
-0.214978 0.014151 -0.194098 76 0 153
-0.205167 -0.089148 0.380471 0 0 255
-0.266753 -0.480059 0.385803 153 0 76
0.298795 -0.298611 0.382232 76 0 153
0.323781 -0.596700 0.443003 76 0 153
0.348969 -0.142367 -0.279592 76 153 0
-0.168664 -0.089148 -0.061490 0 0 255
0.313342 0.279442 -0.349016 76 153 0
-0.301033 -0.622860 0.444050 153 0 76
0.089996 0.665191 -0.433605 153 0 76
0.331081 -0.089148 -0.001751 0 0 255
0.030091 -0.055671 -0.306385 76 0 153
0.212887 -0.089148 -0.178413 0 0 255
-0.348265 -0.089148 0.012429 0 0 255
0.344782 0.745768 -0.419219 76 153 0
0.242020 -0.029811 0.301791 0 0 255
-0.099896 0.672218 -0.455674 153 0 76
0.310475 -0.421743 0.377410 76 0 153
-0.283507 -0.430512 0.377017 153 0 76
0.416667 0.816353 -0.318324 153 0 76
-0.153956 -0.089148 0.368625 0 0 255
0.311440 -0.089148 -0.159454 0 0 255
0.171348 -0.051547 -0.320687 76 0 153
0.136847 0.014151 0.217548 76 0 153
0.338580 -0.547714 0.433561 76 0 153
0.419868 -0.089148 0.364577 0 0 255
0.185350 -0.029811 0.044422 0 0 255
-0.254980 0.804797 -0.402533 153 0 76
0.369037 -0.089148 0.314297 0 0 255
0.410624 0.688241 -0.335892 153 0 76
-0.028232 -0.089148 -0.047846 0 0 255
-0.273588 -0.098915 0.449270 153 0 76
0.305010 -0.209265 -0.316281 76 153 0
0.303483 0.003109 -0.305740 76 153 0
0.209059 0.014151 -0.112130 76 0 153
-0.304223 -0.167370 0.304302 76 0 153
-0.363283 0.648015 -0.343044 153 0 76
0.111816 -0.029811 0.235697 0 0 255
0.327967 -0.468056 0.379410 76 0 153
0.386041 0.046165 -0.236223 153 76 0
-0.299301 -0.053511 -0.259374 76 0 153
0.362750 0.014151 -0.064657 76 0 153
0.399520 -0.089148 0.004682 153 76 0
0.316551 0.068838 -0.290338 76 153 0
0.101351 -0.055671 0.323913 76 0 153
0.027024 -0.089148 0.043327 0 0 255
-0.323548 -0.275122 0.378134 76 0 153
-0.101063 0.812182 -0.481672 153 0 76
-0.012987 -0.055671 0.014865 76 0 153
-0.359071 0.008479 -0.167308 76 0 153
-0.133781 -0.089148 0.415543 0 0 255
-0.198761 0.014151 0.285841 76 0 153
0.408537 -0.044740 -0.105476 76 0 153
-0.033956 0.014151 0.205289 76 0 153
-0.163058 -0.029811 0.264599 0 0 255
-0.015852 -0.089148 0.098566 0 0 255
-0.260650 -0.029811 -0.241105 0 0 255
0.050029 0.721242 -0.475442 153 0 76
0.018810 -0.029811 -0.105974 0 0 255
-0.217922 -0.029811 0.428879 0 0 255
0.008560 0.014151 0.022846 76 0 153
0.352838 0.019551 -0.336019 76 153 0
-0.422982 -0.031844 0.218038 76 0 153
-0.117195 0.014151 0.150950 76 0 153
0.242121 -0.055671 -0.013141 76 0 153
-0.328220 -0.089148 0.185353 0 0 255
-0.189890 0.720802 -0.412903 153 0 76
-0.325614 0.673848 -0.359825 0 127 127
0.121684 -0.089148 0.049475 0 0 255
-0.395097 -0.053226 0.063491 76 0 153
-0.302840 -0.744904 0.456061 153 0 76
-0.182195 -0.029811 0.108872 0 0 255
-0.015629 -0.029811 -0.044003 0 0 255
0.000615 -0.029811 0.386961 0 0 255
0.350582 -0.230684 -0.278682 76 153 0
-0.308057 -0.089148 0.051252 0 0 255
-0.060144 -0.089148 0.336753 0 0 255
0.060523 -0.089148 0.429265 0 0 255
0.159806 -0.029811 0.322266 0 0 255
0.141053 0.620472 -0.416047 153 0 76
-0.260752 -0.055671 0.427762 76 0 153
-0.306997 -0.548121 0.435173 153 0 76
0.310322 -0.029811 -0.125366 0 0 255
-0.299589 -0.561610 -0.293601 0 127 127
-0.396070 0.853932 -0.324549 153 0 76
0.418550 -0.029811 0.071841 0 0 255
-0.347678 -0.192178 -0.084884 76 0 153
0.341864 -0.633183 -0.279324 76 153 0
0.339372 -0.086010 0.460848 0 0 255
0.053123 0.014151 0.387607 76 0 153
0.155375 -0.089148 -0.227237 0 0 255
-0.307675 -0.009243 -0.332860 0 127 127
-0.026697 0.822464 -0.492850 153 0 76
-0.111393 0.014151 0.234652 76 0 153
0.222585 -0.089148 0.403335 0 0 255
-0.302830 -0.482801 -0.312731 76 0 153
0.019304 -0.055671 0.282803 76 0 153
0.161292 -0.055671 -0.161808 76 0 153
0.413157 -0.046508 -0.057382 76 0 153
-0.337530 -0.397586 -0.270391 0 127 127
-0.358142 0.014151 0.190832 76 0 153
0.413833 -0.049162 0.301612 76 0 153
0.389378 -0.129873 -0.058108 153 76 0
0.292059 -0.093949 0.442565 0 0 255
0.081206 -0.055671 -0.011494 76 0 153
-0.315196 -0.798937 -0.305899 0 127 127
0.297357 -0.089148 -0.262514 0 0 255
0.416741 -0.001865 -0.188464 153 76 0
-0.060138 -0.089148 -0.189543 0 0 255
0.336242 -0.029811 0.049250 0 0 255
-0.042979 0.014151 0.306745 76 0 153
0.115635 -0.089148 0.475623 0 0 255
0.343694 -0.094765 0.412930 0 0 255
-0.074775 -0.048450 -0.336400 76 0 153
0.060362 -0.029811 0.151991 0 0 255
0.328403 -0.791339 -0.294567 76 153 0
-0.030645 -0.089148 -0.264123 0 0 255
0.351915 -0.384289 -0.328737 76 153 0
-0.053866 -0.055671 -0.117800 76 0 153
0.429235 -0.000657 0.138628 76 0 153
0.231189 0.014151 -0.284363 76 0 153
-0.317129 -0.029811 0.112693 0 0 255
-0.272464 -0.089148 0.331473 0 0 255
0.070398 0.014151 -0.051919 76 0 153
0.294320 -0.055671 0.136312 76 0 153
0.342106 0.368941 -0.309350 76 153 0
-0.120595 -0.089148 0.014514 0 0 255
0.315273 -0.434209 -0.281263 76 153 0
-0.212942 -0.029811 -0.124914 0 0 255
-0.065606 -0.089148 0.067310 0 0 255
-0.064894 -0.089148 0.146805 0 0 255
0.353589 -0.194981 -0.102525 153 76 0
0.313808 -0.371006 0.376792 76 0 153
0.328180 0.279563 -0.302377 76 153 0
-0.321168 -0.029811 0.010168 0 0 255
0.221647 -0.055671 0.236325 76 0 153
-0.372563 -0.029811 0.274603 0 0 255
-0.342670 0.048307 -0.341715 0 127 127
0.135363 0.699380 -0.431984 153 0 76
0.268988 -0.029811 0.095163 0 0 255
0.118119 -0.029811 0.122709 0 0 255
-0.160261 -0.089148 -0.347350 0 0 255
0.264696 -0.055671 -0.265436 76 0 153
0.249421 -0.029811 0.026924 0 0 255
-0.155102 0.001663 -0.325104 76 0 153
-0.185250 -0.029811 -0.060006 0 0 255
0.363142 -0.058916 -0.302355 76 153 0
-0.333214 -0.293648 -0.245901 76 0 153
-0.386774 0.008580 -0.004691 76 0 153
-0.033992 0.014151 0.086244 76 0 153
-0.315368 -0.089148 -0.224862 0 0 255
-0.149936 -0.055671 0.191121 76 0 153
-0.362505 0.501116 -0.378173 0 127 127
0.069391 0.800307 -0.488491 153 0 76
0.200650 0.014151 0.021517 76 0 153
-0.347420 -0.029811 -0.063182 0 0 255
-0.167502 0.014151 -0.110848 76 0 153
0.324731 0.194188 -0.295700 76 153 0
0.323373 -0.619282 0.384309 76 0 153
0.359333 -0.552479 -0.329378 76 153 0
0.017872 0.014151 -0.269632 76 0 153
0.392152 0.014151 0.199215 76 0 153
0.387142 -0.029811 0.128035 0 0 255
-0.298630 -0.218325 0.385601 153 0 76
0.112583 -0.032845 0.529115 0 0 255
-0.301464 0.014151 0.253048 76 0 153
-0.332631 -0.206987 -0.273955 0 127 127
0.344490 -0.029811 -0.188970 0 0 255
0.336629 -0.800974 -0.348732 76 153 0
0.250996 -0.089148 0.095790 0 0 255
-0.413018 -0.089148 0.182396 0 0 255
-0.333834 0.720957 -0.375499 153 0 76
-0.242895 -0.055671 0.289020 76 0 153
0.059290 0.014151 0.280143 76 0 153
-0.084800 -0.029811 -0.254665 0 0 255
-0.380318 0.012142 0.296197 76 0 153
-0.337683 0.014151 0.339756 76 0 153
0.149229 0.014151 0.101054 76 0 153
0.290285 0.836737 -0.416638 153 0 76
-0.306842 -0.665428 -0.311865 0 127 127
0.064921 0.014151 0.088702 76 0 153
-0.064585 -0.029811 0.027674 0 0 255
-0.275815 -0.055671 0.365989 76 0 153
0.056808 -0.055671 0.053791 76 0 153
0.024934 -0.083307 0.494653 153 0 76
-0.177364 0.014151 0.350228 76 0 153
-0.052611 0.308983 -0.307200 76 0 153
0.311246 -0.602644 -0.297820 76 153 0
0.327629 0.651357 -0.353739 153 0 76
0.310307 -0.054013 -0.329400 76 153 0
0.022622 -0.089148 -0.242832 0 0 255
-0.363562 0.003017 0.387141 76 0 153
0.307388 -0.345492 -0.317973 76 153 0
-0.159816 0.014151 -0.034588 76 0 153
-0.346315 0.803709 -0.383130 153 0 76
-0.102081 -0.029811 -0.304293 0 0 255
-0.281134 -0.089148 -0.104470 0 0 255
-0.232704 -0.029811 -0.277377 0 0 255
0.003995 0.681444 -0.469393 153 0 76
0.345253 -0.224289 -0.143016 153 76 0
-0.108734 0.014151 -0.184039 76 0 153
0.326839 -0.029811 0.466589 0 0 255
-0.325907 -0.129263 0.269374 76 0 153
-0.379534 -0.089148 0.128923 0 0 255
-0.103952 -0.055671 0.492074 76 0 153
-0.101255 0.014151 0.386511 76 0 153
-0.251425 -0.055671 -0.016341 76 0 153
-0.288557 -0.470187 0.437513 153 0 76
0.220296 0.565612 -0.365341 76 0 153
-0.309221 0.453593 -0.352967 0 127 127
0.347547 0.145429 -0.348286 76 153 0
0.137144 -0.055671 0.413224 76 0 153
0.371181 -0.089148 0.047401 0 0 255
0.333020 0.002910 -0.256668 76 0 153
0.290221 0.609328 -0.388619 76 0 153
0.332939 -0.300992 -0.208113 153 76 0
0.148936 0.014151 0.357303 76 0 153
-0.313227 -0.299939 0.415851 76 0 153
-0.252811 -0.055671 0.045393 76 0 153
-0.248037 0.014151 0.153538 76 0 153
-0.360739 -0.689001 -0.292032 0 127 127
0.056389 -0.089148 -0.326628 0 0 255
0.231259 0.014151 0.176169 76 0 153
-0.329001 -0.288048 -0.189586 76 0 153
-0.215374 0.014151 -0.032752 76 0 153
0.181110 0.522081 -0.354240 76 0 153
0.366163 0.317738 -0.319668 76 153 0
0.085518 -0.089148 -0.077566 0 0 255
0.356086 -0.832758 -0.292461 76 153 0
-0.077432 -0.089148 -0.141886 0 0 255
0.115090 0.014151 0.463158 76 0 153
-0.224773 -0.089148 -0.292171 0 0 255
-0.354878 -0.764748 -0.344909 0 127 127
0.202454 -0.074273 -0.344860 0 0 255
0.391922 -0.082711 0.123158 0 0 255
-0.313958 -0.343366 0.399819 76 0 153
0.369598 0.458449 -0.367177 76 153 0
0.354392 -0.478675 -0.329702 76 153 0
0.293941 0.014151 -0.141439 76 0 153
0.364855 0.014151 0.108424 76 0 153
0.393437 -0.099625 0.170311 0 0 255
0.302635 -0.055671 0.329471 76 0 153
-0.278086 -0.281560 0.438369 153 0 76
-0.240204 -0.055671 0.232534 76 0 153
-0.309674 0.014151 -0.186921 76 0 153
0.377352 -0.123919 0.238998 153 76 0
0.003467 -0.089148 -0.173959 0 0 255
-0.300999 -0.243042 -0.291850 0 127 127
0.275159 0.131783 -0.289052 153 76 0
0.295447 -0.089148 -0.203352 0 0 255
-0.406387 -0.089148 -0.084539 0 0 255
-0.113067 -0.055671 -0.066579 76 0 153
-0.301430 0.119869 -0.327355 0 127 127
-0.186939 -0.055671 -0.178816 76 0 153
0.292752 -0.055671 0.375897 76 0 153
0.041704 0.014151 -0.007307 76 0 153
0.377555 -0.089148 -0.043698 0 0 255
-0.310387 -0.165079 0.400599 153 0 76
-0.334161 -0.089148 0.386473 0 0 255
-0.046779 0.005690 0.503936 76 0 153
-0.401365 0.004075 0.199700 76 0 153
-0.048550 0.014151 -0.211539 76 0 153
-0.273641 0.014151 0.397736 76 0 153
0.091540 -0.040782 -0.362698 0 0 255
-0.080945 -0.029811 0.360780 0 0 255
-0.303837 -0.220837 0.316975 76 0 153
-0.168379 0.014151 0.065772 76 0 153
0.234067 -0.055671 -0.217012 76 0 153
0.191718 0.014151 -0.202402 76 0 153
0.384126 0.671903 -0.380727 76 153 0
-0.337678 -0.217440 -0.188878 76 0 153
0.186377 -0.055671 0.202096 76 0 153
-0.175290 -0.089148 -0.301531 0 0 255
0.275312 -0.029811 0.213772 0 0 255
0.044172 -0.034300 0.535559 0 0 255
0.327526 -0.029811 -0.035878 0 0 255
0.119009 -0.089148 -0.118895 0 0 255
-0.364152 -0.029811 0.020768 0 0 255
0.351511 -0.187006 0.335558 153 76 0
0.316052 0.014151 -0.075693 76 0 153
-0.170858 -0.029811 0.005524 0 0 255
-0.395770 0.003004 -0.192429 76 0 153
0.348394 -0.824034 0.407758 76 0 153
0.340521 -0.191809 0.285074 153 76 0
-0.295619 0.014151 -0.000226 76 0 153
0.215369 -0.055671 0.432968 76 0 153
-0.143156 -0.029811 0.365904 0 0 255
0.144120 -0.089148 -0.004030 0 0 255
0.224461 0.683380 -0.432775 153 0 76
-0.301102 -0.096579 -0.320102 0 127 127
0.352014 -0.029811 0.310799 0 0 255
0.285832 -0.055671 -0.049700 76 0 153
-0.388704 0.721035 -0.338688 153 0 76
0.129026 -0.055671 -0.307306 76 0 153
-0.414217 -0.087125 -0.021339 0 0 255
-0.389129 -0.088976 -0.177146 0 0 255
0.202913 -0.089148 0.468976 0 0 255
-0.050248 -0.089148 -0.314754 0 0 255
0.446458 -0.046782 0.216618 0 0 255
-0.243641 0.014151 -0.141840 76 0 153
0.089901 -0.055671 0.201798 76 0 153
0.056742 -0.089148 -0.025910 0 0 255
0.374368 -0.730677 -0.310892 76 153 0
-0.280379 -0.834500 0.450663 153 0 76
-0.257485 -0.029811 -0.104932 0 0 255
-0.315617 -0.501706 0.421521 153 0 76
-0.349558 0.242871 -0.302037 0 127 127
-0.366811 -0.631684 -0.307226 0 127 127
-0.314276 0.581943 -0.364738 0 127 127
-0.009973 -0.029811 -0.226721 0 0 255
-0.262328 0.675694 -0.404249 153 0 76
0.244694 -0.065091 -0.331733 0 0 255
-0.045275 -0.029811 0.160706 0 0 255
-0.073668 0.014151 0.146657 76 0 153
0.129214 -0.089148 0.386241 0 0 255
0.351692 -0.029811 -0.111315 0 0 255
0.312986 -0.055671 0.019662 76 0 153
0.166149 0.014151 0.463667 76 0 153
-0.333652 -0.089148 0.284733 0 0 255
0.341380 0.494704 -0.385260 76 153 0
-0.183388 -0.089148 -0.105452 0 0 255
0.226587 0.790768 -0.452198 153 0 76
0.261156 0.658837 -0.386748 153 0 76
-0.281609 -0.055671 0.124769 76 0 153
-0.420040 -0.049372 0.258593 0 0 255
-0.397749 0.810635 -0.314385 153 0 76
0.429942 -0.047555 0.343992 0 0 255
0.067409 0.637380 -0.458158 153 0 76
-0.363925 -0.089148 0.346170 0 0 255
-0.301356 -0.089148 0.247242 0 0 255
0.182948 -0.129734 0.468736 153 0 76
0.097347 -0.089148 -0.266865 0 0 255
0.363024 -0.106709 -0.300841 76 153 0
-0.001909 -0.089148 0.346246 0 0 255
0.370846 0.819945 -0.390228 153 0 76
0.396838 -0.029811 0.254539 0 0 255
-0.355446 -0.142168 0.239788 76 0 153
0.284664 -0.134268 0.427352 76 0 153
-0.341006 -0.134793 0.185736 76 0 153
-0.275267 -0.291026 0.379639 153 0 76
-0.232895 -0.055671 -0.220381 76 0 153
-0.132931 -0.089148 0.477483 0 0 255
0.064885 -0.055671 0.347522 76 0 153
-0.357182 -0.295257 -0.290483 0 127 127
-0.022765 0.014151 -0.163014 76 0 153
-0.062763 0.014151 0.464770 76 0 153
-0.258172 -0.188052 0.430914 153 0 76
0.345910 -0.758006 0.454113 76 0 153
-0.299145 -0.326344 -0.303011 0 127 127
0.281401 0.778033 -0.400620 153 0 76
0.325371 -0.339436 -0.237178 153 76 0
0.433346 0.746159 -0.291240 153 0 76
-0.322266 -0.581989 0.411582 153 0 76
-0.041458 0.014151 -0.018205 76 0 153
0.077931 -0.055671 -0.289494 76 0 153
-0.094538 -0.089148 -0.288675 0 0 255
-0.267189 -0.683740 0.426511 153 0 76
-0.212692 0.800873 -0.448070 153 0 76
0.337519 -0.055671 -0.152842 76 0 153
0.054615 -0.055671 0.118195 76 0 153
-0.036344 0.014151 0.391836 76 0 153
-0.340211 -0.109294 0.141070 76 0 153
0.018530 -0.055671 -0.046654 76 0 153
0.265039 -0.029811 -0.149034 0 0 255
0.380171 -0.029811 0.044724 0 0 255
0.056376 -0.029811 0.429172 0 0 255
-0.068485 -0.029811 0.095547 0 0 255
-0.076306 -0.124111 0.504246 153 0 76
-0.151066 -0.134868 0.462086 153 0 76
0.404135 -0.029811 0.008826 0 0 255
0.130921 0.014151 0.023988 76 0 153
0.205575 0.723722 -0.418575 153 0 76
0.198574 -0.029811 0.472009 0 0 255
0.111220 0.743291 -0.444817 153 0 76
-0.059598 -0.029811 0.312626 0 0 255
-0.012520 -0.061937 -0.365942 0 0 255
-0.320089 -0.715598 -0.337937 0 127 127
0.316066 -0.257991 0.439652 76 0 153
-0.117251 -0.089148 0.068310 0 0 255
-0.117635 0.734342 -0.463531 153 0 76
0.267915 -0.055671 -0.190915 76 0 153
0.090441 0.007403 -0.329945 76 0 153
0.431899 -0.036130 -0.140848 0 0 255
0.304785 0.123488 -0.323399 76 153 0
0.362112 0.617891 -0.342801 76 153 0
0.076208 -0.089148 0.142455 0 0 255
-0.146243 -0.055671 0.114568 76 0 153
0.313540 -0.577434 0.382735 76 0 153
-0.348768 -0.049945 -0.210794 76 0 153
-0.371348 0.596365 -0.385186 0 127 127
-0.304838 -0.029811 0.343831 0 0 255
0.351057 -0.055671 0.127742 76 0 153
-0.278180 0.618495 -0.390166 153 76 0
0.312498 -0.089148 0.220093 0 0 255
0.148124 -0.089148 0.445195 0 0 255
-0.361366 0.134282 -0.317348 0 127 127
0.219425 -0.029811 0.154563 0 0 255
-0.326678 -0.676665 0.413061 153 0 76
-0.285422 -0.055671 -0.077904 76 0 153
0.188005 -0.029811 -0.240138 0 0 255
-0.079859 0.014151 -0.277415 76 0 153
-0.193430 -0.055671 0.146564 76 0 153
-0.106728 -0.055671 0.205608 76 0 153
-0.327876 0.089151 -0.346982 0 127 127
0.330093 -0.426552 -0.333900 76 153 0
-0.228076 0.730326 -0.428964 153 0 76
0.429323 0.850871 -0.338957 153 0 76
0.406825 0.784491 -0.357162 153 0 76
0.224288 0.014151 0.303221 76 0 153
-0.206033 -0.164994 0.466530 153 0 76
-0.329441 -0.747881 -0.287705 0 127 127
-0.008684 -0.029811 0.106787 0 0 255
-0.311473 -0.029811 0.051102 0 0 255
-0.121763 -0.089148 -0.094203 0 0 255
0.048505 -0.089148 0.370585 0 0 255
0.045512 -0.089148 0.270928 0 0 255
0.105402 -0.127765 0.501543 153 0 76
0.011153 0.014151 0.133306 76 0 153
0.361676 -0.007824 -0.299189 76 153 0
0.359727 -0.753702 -0.343691 76 153 0
0.140285 0.014151 0.174313 76 0 153
-0.290811 -0.089148 -0.279896 0 0 255
0.322823 -0.511277 -0.332522 76 153 0
0.357257 -0.318070 -0.283176 76 153 0
-0.336877 0.325072 -0.366332 0 127 127
0.104012 -0.029811 0.359618 0 0 255
-0.372914 -0.798943 -0.322941 0 127 127
0.347934 -0.089148 0.260808 0 0 255
-0.367680 -0.089148 -0.066088 0 0 255
0.342222 -0.303822 0.417245 76 0 153
0.005428 -0.029811 0.055583 0 0 255
-0.270610 0.014151 0.189266 76 0 153
-0.198625 -0.089148 0.066159 0 0 255
0.293134 0.699404 -0.409658 153 0 76
0.380629 0.014151 0.299710 76 0 153
0.406334 -0.029811 0.175582 0 0 255
0.223458 -0.089148 0.322326 0 0 255
