ply
format ascii 1.0
element vertex 621
property float x
property float y
property float z
property float nx
property float ny
property float nz
property uchar red
property uchar green
property uchar blue
property float opacity
end_header
0.084355 0.000140 -0.159273 0.000000 -1.000000 0.000000 255 255 255 1.000000
-0.291612 0.373069 -0.260369 0.000000 0.110818 0.993841 255 255 255 1.000000
-0.018343 -0.045089 0.392748 0.000000 0.000000 -1.000000 255 255 255 1.000000
0.291025 0.000140 0.270372 0.000000 1.000000 0.000000 225 211 180 1.000000
0.354313 -0.445914 -0.263931 0.000000 0.086984 -0.996210 76 43 22 1.000000
0.401448 -0.662116 -0.252704 -1.000000 0.000000 0.000000 255 255 255 1.000000
-0.184550 -0.033289 -0.214095 0.000000 0.000000 1.000000 255 255 255 1.000000
-0.343859 -0.051794 0.124165 0.000000 -1.000000 0.000000 255 255 255 1.000000
-0.387763 -0.164175 0.400306 0.000000 0.078881 0.996884 255 255 255 1.000000
0.125152 -0.088072 0.187082 0.000000 1.000000 0.000000 255 255 255 1.000000
0.224686 0.164993 -0.235053 0.000000 -0.071876 -0.997414 255 255 255 1.000000
-0.101152 -0.051916 0.394619 -0.000015 -0.996087 -0.088381 255 255 255 1.000000
0.401389 -0.429472 -0.226278 -0.000000 -0.082286 0.996609 81 51 29 1.000000
-0.228044 0.000140 0.295577 0.000000 -1.000000 0.000000 255 255 255 1.000000
0.031406 -0.088587 0.385413 0.001653 -0.999997 -0.001897 226 218 183 1.000000
0.199219 0.000140 -0.112867 0.000000 1.000000 0.000000 216 204 160 1.000000
-0.243844 0.568927 -0.280079 0.000000 -0.152062 -0.988371 255 255 255 1.000000
-0.089855 -0.088191 0.071457 0.001653 -0.999997 -0.001897 218 208 161 1.000000
-0.168533 0.000140 0.006353 0.000000 1.000000 0.000000 187 184 145 1.000000
-0.393383 -0.106307 -0.212222 -0.006614 -0.981125 0.193264 70 40 18 1.000000
0.102460 0.476270 -0.266111 0.000000 0.136606 0.990625 218 203 161 1.000000
0.254825 -0.088072 -0.201075 0.000000 -1.000000 0.000000 217 204 156 1.000000
0.368160 -0.051794 0.240650 0.000000 -1.000000 0.000000 255 255 255 1.000000
0.025649 -0.088072 -0.048849 0.000000 1.000000 0.000000 255 255 255 1.000000
-0.392043 -0.088072 0.358967 0.000000 -1.000000 0.000000 68 38 16 1.000000
-0.003675 0.000140 0.242885 0.000000 -1.000000 0.000000 255 255 255 1.000000
-0.293011 0.000140 -0.100837 0.000000 1.000000 0.000000 229 219 189 1.000000
0.035039 0.462745 -0.264350 0.000000 -0.133325 -0.991072 255 255 255 1.000000
-0.291018 0.000140 0.097329 0.000000 1.000000 0.000000 230 220 190 1.000000
-0.133688 -0.088783 0.344799 -0.001653 0.999997 0.001897 255 255 255 1.000000
-0.373460 -0.761617 -0.267537 -0.000000 -0.250163 0.968204 74 41 20 1.000000
0.043944 -0.088090 0.134412 -0.001653 0.999997 0.001897 255 255 255 1.000000
0.401448 -0.054814 -0.223031 1.000000 0.000000 0.000000 58 28 8 1.000000
0.364153 -0.507495 -0.270151 -0.000000 -0.101894 0.994795 255 255 255 1.000000
0.109110 0.000140 -0.081798 0.000000 -1.000000 0.000000 255 255 255 1.000000
-0.359930 0.623192 -0.274972 0.000000 0.157529 0.987514 55 26 8 1.000000
-0.394880 -0.076244 0.427259 1.000000 0.000000 0.000000 255 255 255 1.000000
0.045031 0.402776 -0.263753 0.000000 0.117981 0.993016 255 255 255 1.000000
-0.024125 -0.001352 -0.196638 0.000000 0.944522 -0.328447 217 202 167 1.000000
-0.117720 0.564896 -0.286531 0.000000 -0.151290 -0.988490 197 186 146 1.000000
-0.380803 -0.560123 -0.239004 0.000000 0.113622 -0.993524 255 255 255 1.000000
0.264503 -0.066128 0.422384 0.000002 0.622833 0.782355 75 42 21 1.000000
0.151195 0.205059 -0.245307 0.000000 0.077289 0.997009 255 255 255 1.000000
-0.076040 0.000140 0.272668 0.000000 1.000000 0.000000 216 205 172 1.000000
0.401448 -0.793572 -0.303710 -1.000000 0.000000 0.000000 255 255 255 1.000000
-0.342946 -0.072539 -0.205347 1.000000 0.000000 0.000000 74 41 20 1.000000
-0.392436 -0.051794 0.159922 0.000000 1.000000 0.000000 76 46 24 1.000000
-0.179714 -0.088224 0.010148 -0.001653 0.999997 0.001897 255 255 255 1.000000
-0.390176 -0.621019 -0.246787 0.000000 0.128239 -0.991743 255 255 255 1.000000
0.360382 -0.051794 -0.165439 0.000000 1.000000 0.000000 68 35 14 1.000000
-0.360605 0.350271 -0.271728 0.000000 -0.105670 -0.994401 73 43 21 1.000000
0.353068 0.001417 -0.249483 0.000000 0.023465 0.999725 255 255 255 1.000000
0.239015 0.542270 -0.275826 0.000000 -0.148478 -0.988916 255 255 255 1.000000
0.157615 -0.085547 0.430400 0.000014 0.157980 0.987442 77 42 22 1.000000
0.167333 -0.088072 0.065333 0.000000 -1.000000 0.000000 219 222 171 1.000000
0.401119 -0.427144 0.457505 0.000000 0.078881 0.996884 77 44 23 1.000000
0.356165 -0.686763 -0.292164 -0.000000 -0.144296 0.989534 255 255 255 1.000000
0.170573 0.288359 -0.244512 0.000000 0.090984 0.995852 213 201 159 1.000000
0.112701 0.000140 0.013177 0.000000 -1.000000 0.000000 255 255 255 1.000000
0.119011 0.000140 0.127364 0.000000 1.000000 0.000000 246 238 216 1.000000
0.398986 -0.369656 0.452956 0.000000 0.078881 0.996884 81 48 27 1.000000
-0.247425 0.475654 -0.273240 0.000000 0.135563 0.990769 255 255 255 1.000000
-0.392025 -0.628556 0.437051 0.000000 0.078881 0.996884 255 255 255 1.000000
0.304904 -0.020643 -0.213514 0.000000 0.200073 -0.979781 227 221 189 1.000000
0.254634 0.000140 0.048038 0.000000 -1.000000 0.000000 255 255 255 1.000000
0.371144 -0.051794 0.365339 0.000000 1.000000 0.000000 74 44 22 1.000000
0.372945 -0.219194 0.404659 0.000000 0.078881 0.996884 255 255 255 1.000000
0.072102 -0.004491 0.381489 0.000000 0.830334 0.557266 226 215 189 1.000000
-0.225386 0.609761 -0.292832 0.000000 -1.000000 0.000000 255 255 255 1.000000
0.307905 0.420618 -0.258867 0.000000 -0.123097 -0.992395 255 255 255 1.000000
-0.347842 -0.772252 0.447445 0.000000 0.000000 -1.000000 64 36 13 1.000000
-0.021689 -0.088072 -0.126264 0.000000 -1.000000 0.000000 234 224 188 1.000000
-0.057463 -0.088072 -0.060224 0.000000 -1.000000 0.000000 252 240 212 1.000000
-0.353270 0.225804 -0.260430 0.000000 -0.075552 -0.997142 81 46 26 1.000000
-0.374620 -0.443418 -0.263678 0.000000 0.086379 -0.996262 77 44 23 1.000000
0.328745 -0.000441 0.110552 0.200626 0.979668 0.000000 225 202 175 1.000000
-0.326422 0.291978 -0.252177 0.000000 -0.091261 -0.995827 212 204 160 1.000000
0.372440 -0.051794 0.055925 0.000000 1.000000 0.000000 76 46 26 1.000000
0.387459 -0.241116 -0.251476 0.000000 0.037434 -0.999299 76 43 22 1.000000
0.330822 0.532029 -0.274192 0.000000 -0.147100 -0.989122 255 255 255 1.000000
-0.044453 0.279394 -0.243606 0.000000 0.088806 0.996049 191 179 143 1.000000
-0.372671 -0.105282 0.395646 0.000000 0.078881 0.996884 255 255 255 1.000000
0.354487 0.222458 -0.260189 0.000000 0.074742 0.997203 255 255 255 1.000000
0.353595 -0.167726 -0.249389 0.000000 0.019675 -0.999806 75 42 23 1.000000
0.115653 0.000140 -0.126947 0.000000 -1.000000 0.000000 255 255 255 1.000000
-0.380969 0.579403 -0.302609 0.000000 -0.152229 -0.988345 75 42 21 1.000000
0.312655 0.288973 -0.244574 0.000000 0.091134 0.995839 248 239 208 1.000000
0.180916 0.609761 -0.292678 0.000000 1.000000 0.000000 69 39 15 1.000000
0.375091 -0.088072 0.021814 0.000000 -1.000000 0.000000 197 181 139 1.000000
0.353017 -0.773207 -0.270531 0.000000 0.250163 -0.968204 255 255 255 1.000000
-0.186494 0.000140 -0.067085 0.000000 1.000000 0.000000 215 201 152 1.000000
0.019792 -0.088072 -0.004171 0.000000 1.000000 0.000000 255 255 255 1.000000
-0.040746 0.415603 -0.258214 0.000000 0.121878 0.992545 196 184 148 1.000000
0.010834 -0.003358 0.379792 0.000000 0.865526 0.500863 188 183 139 1.000000
0.093041 -0.088072 0.014383 0.000000 1.000000 0.000000 255 255 255 1.000000
0.374478 -0.104086 0.395551 0.000000 -0.078881 -0.996884 71 37 14 1.000000
0.367056 -0.568484 -0.276533 -0.000000 -0.116643 0.993174 255 255 255 1.000000
0.058970 -0.034159 -0.214095 0.000000 0.000000 -1.000000 224 217 185 1.000000
-0.298529 0.000140 -0.153969 0.000000 -1.000000 0.000000 255 255 255 1.000000
0.158472 -0.088072 -0.006239 0.000000 -1.000000 0.000000 221 213 162 1.000000
-0.055102 0.462773 -0.264354 0.000000 -0.133332 -0.991071 255 255 255 1.000000
0.315058 -0.088072 0.005405 0.000000 -1.000000 0.000000 207 195 151 1.000000
0.401448 -0.053093 0.211476 1.000000 0.000000 0.000000 73 40 19 1.000000
0.368141 -0.301091 -0.217753 -0.000000 -0.051494 0.998673 70 37 16 1.000000
0.165801 -0.088072 -0.135863 0.000000 -1.000000 0.000000 213 204 167 1.000000
0.375688 -0.707081 0.443265 0.000000 -0.078881 -0.996884 77 44 23 1.000000
-0.205603 0.408439 -0.257281 0.000000 -0.120137 -0.992757 255 255 255 1.000000
-0.349901 0.078396 -0.251913 0.000000 0.039882 0.999204 255 255 255 1.000000
0.208008 -0.088072 0.149287 0.000000 -1.000000 0.000000 218 206 174 1.000000
-0.168661 0.000140 0.146050 0.000000 1.000000 0.000000 185 181 143 1.000000
0.195443 0.000140 0.272505 0.000000 1.000000 0.000000 222 209 162 1.000000
0.374529 0.268389 -0.263497 0.000000 -0.085848 -0.996308 73 39 16 1.000000
-0.047565 0.000140 0.337388 0.000000 1.000000 0.000000 201 193 143 1.000000
0.229864 0.607587 -0.293343 0.000000 -0.157246 -0.987559 209 198 156 1.000000
0.251752 0.297676 -0.252753 0.000000 0.092637 0.995700 255 255 255 1.000000
-0.065598 0.000140 -0.168093 0.000000 1.000000 0.000000 217 202 162 1.000000
-0.370384 -0.467970 0.460736 0.000000 0.078881 0.996884 69 36 15 1.000000
0.373358 0.582283 -0.303069 0.000000 -0.152578 -0.988291 84 51 30 1.000000
-0.084903 0.609761 -0.292054 0.000000 -1.000000 0.000000 255 255 255 1.000000
-0.365647 -0.627084 -0.284161 -0.000000 -0.130832 0.991405 255 255 255 1.000000
0.239929 -0.088251 0.390056 0.001653 -0.999997 -0.001897 229 215 182 1.000000
0.040384 0.549810 -0.284125 0.000000 0.149183 0.988810 255 255 255 1.000000
0.128221 -0.088233 0.283644 -0.001653 0.999997 0.001897 255 255 255 1.000000
0.003231 0.000140 0.069431 0.000000 -1.000000 0.000000 255 255 255 1.000000
-0.378239 -0.282765 -0.253274 0.000000 0.047513 -0.998871 72 39 16 1.000000
0.349694 -0.385952 -0.259516 0.000000 0.072482 -0.997370 72 39 18 1.000000
-0.367068 -0.631186 0.473651 0.000000 -0.078881 -0.996884 255 255 255 1.000000
-0.342946 -0.045074 0.358527 -1.000000 0.000000 0.000000 222 215 182 1.000000
0.386126 -0.778853 0.447445 0.000000 0.000000 -1.000000 77 40 17 1.000000
-0.373158 -0.229156 -0.214648 -0.000000 -0.034238 0.999414 73 40 19 1.000000
0.370269 0.333737 -0.235435 0.000000 -0.101670 -0.994818 255 255 255 1.000000
-0.393161 -0.427837 -0.226160 0.000000 0.081895 -0.996641 255 255 255 1.000000
-0.389835 -0.088072 0.268858 0.000000 1.000000 0.000000 255 255 255 1.000000
-0.386409 -0.051794 0.333630 0.000000 -1.000000 0.000000 255 255 255 1.000000
0.257294 0.503226 -0.276830 0.000000 0.142203 0.989837 255 255 255 1.000000
0.376655 -0.153651 0.435864 0.000000 -0.078881 -0.996884 255 255 255 1.000000
-0.390627 0.185936 -0.257558 0.000000 -0.065904 -0.997826 74 41 18 1.000000
0.353240 0.089901 -0.252410 0.000000 -0.042666 -0.999089 75 42 23 1.000000
0.347000 -0.014801 0.302112 -0.999247 0.038809 0.000000 230 218 191 1.000000
-0.044081 -0.088278 0.157058 0.001653 -0.999997 -0.001897 225 217 184 1.000000
-0.081476 -0.010929 0.387989 0.000000 -0.574809 -0.818288 255 255 255 1.000000
-0.342946 -0.314282 -0.254522 -1.000000 0.000000 0.000000 255 255 255 1.000000
-0.263156 0.000140 -0.179117 0.000000 1.000000 0.000000 230 222 195 1.000000
-0.172772 0.608880 -0.286453 0.000000 -0.157431 -0.987530 255 255 255 1.000000
0.400785 0.033044 -0.249955 0.000000 -0.028905 -0.999582 71 38 17 1.000000
0.024366 0.318583 -0.254865 0.000000 0.097682 0.995218 255 255 255 1.000000
0.097631 -0.087176 -0.211967 0.000000 -0.060013 -0.998198 79 46 25 1.000000
-0.106380 0.000140 -0.186689 0.000000 1.000000 0.000000 229 218 190 1.000000
0.271951 -0.001782 0.376555 0.000000 -0.926378 -0.376595 255 255 255 1.000000
0.352213 -0.190902 -0.213440 0.000986 -0.173806 0.984779 72 41 24 1.000000
-0.215132 -0.088215 -0.025408 -0.001653 0.999997 0.001897 255 255 255 1.000000
-0.025210 0.000140 -0.045561 0.000000 1.000000 0.000000 210 206 160 1.000000
0.349514 -0.199590 0.439174 -1.000000 0.000000 0.000000 81 48 27 1.000000
-0.342946 -0.068066 0.077074 1.000000 0.000000 0.000000 59 29 7 1.000000
-0.281870 -0.088536 0.085570 -0.001653 0.999997 0.001897 255 255 255 1.000000
-0.215300 0.000140 -0.127438 0.000000 1.000000 0.000000 225 214 172 1.000000
-0.294984 0.573332 -0.280782 0.000000 -0.152654 -0.988280 255 255 255 1.000000
-0.256234 -0.088072 -0.199716 0.000000 -1.000000 0.000000 216 203 155 1.000000
-0.342946 -0.046731 0.225031 1.000000 0.000000 0.000000 255 255 255 1.000000
0.113242 -0.088345 0.329296 0.001653 -0.999997 -0.001897 210 192 156 1.000000
-0.208033 0.332752 -0.248996 0.000000 0.101767 0.994808 221 208 163 1.000000
-0.175938 -0.003189 0.379459 0.000000 0.872483 0.488644 222 208 167 1.000000
0.365499 -0.761759 0.483983 0.000000 0.078881 0.996884 67 37 15 1.000000
-0.365477 -0.550129 0.467237 0.000000 0.078881 0.996884 71 37 14 1.000000
-0.346494 -0.056850 0.411583 0.000000 0.867743 0.497014 85 52 29 1.000000
0.350923 -0.343333 0.414482 0.000000 -0.078881 -0.996884 70 37 18 1.000000
-0.060342 -0.088648 0.337679 -0.001653 0.999997 0.001897 255 255 255 1.000000
0.374533 -0.088072 0.330684 0.000000 1.000000 0.000000 255 255 255 1.000000
0.351108 -0.572198 0.468983 0.000000 -0.078881 -0.996884 255 255 255 1.000000
-0.203748 -0.088970 0.381895 0.001653 -0.999997 -0.001897 221 218 187 1.000000
-0.392991 -0.793822 0.486520 0.000000 -0.078881 -0.996884 255 255 255 1.000000
0.212214 -0.056007 0.392854 0.000000 -0.025287 -0.999680 73 40 19 1.000000
0.376026 0.157923 -0.220917 0.000000 0.059122 0.998251 72 38 15 1.000000
-0.264864 -0.088786 0.231973 -0.001653 0.999997 0.001897 255 255 255 1.000000
0.373051 -0.129782 -0.248843 0.000000 0.010493 -0.999945 77 44 23 1.000000
-0.334183 -0.089027 0.298448 -0.001653 0.999997 0.001897 255 255 255 1.000000
0.374994 0.409629 -0.243730 0.000000 -0.120030 -0.992770 255 255 255 1.000000
0.115394 0.000140 0.254277 0.000000 -1.000000 0.000000 255 255 255 1.000000
0.264972 0.000140 -0.162480 0.000000 -1.000000 0.000000 255 255 255 1.000000
-0.373566 0.464099 -0.285443 0.000000 0.133215 0.991087 255 255 255 1.000000
0.373057 -0.704908 -0.258321 -0.000000 -0.147250 0.989099 79 46 25 1.000000
-0.344530 0.013455 -0.249656 0.000000 0.025519 0.999674 255 255 255 1.000000
-0.216756 0.000140 0.143673 0.000000 1.000000 0.000000 205 195 157 1.000000
0.151963 0.000140 0.360856 0.000000 -1.000000 0.000000 255 255 255 1.000000
-0.368458 0.536829 -0.295817 0.000000 0.147072 0.989126 255 255 255 1.000000
0.184947 -0.088291 0.363240 -0.001653 0.999997 0.001897 255 255 255 1.000000
0.063141 -0.088424 0.327378 -0.001653 0.999997 0.001897 255 255 255 1.000000
-0.005250 -0.088493 0.304168 -0.001653 0.999997 0.001897 255 255 255 1.000000
-0.364935 -0.506550 0.427397 0.000000 0.078881 0.996884 255 255 255 1.000000
0.378890 -0.757849 -0.303505 0.000000 0.152909 -0.988240 71 37 14 1.000000
0.392470 -0.051794 0.274448 0.000000 1.000000 0.000000 71 38 17 1.000000
-0.382444 -0.307197 -0.218017 -0.000000 -0.052958 0.998597 70 42 17 1.000000
0.171316 -0.088072 0.115058 0.000000 1.000000 0.000000 255 255 255 1.000000
0.299690 -0.088072 0.067929 0.000000 -1.000000 0.000000 223 226 175 1.000000
-0.357658 -0.662541 -0.252192 0.000000 0.138193 -0.990405 255 255 255 1.000000
0.373887 -0.051794 -0.027437 0.000000 1.000000 0.000000 71 41 19 1.000000
0.239421 0.000140 0.228787 0.000000 1.000000 0.000000 229 220 194 1.000000
-0.263684 -0.088122 -0.116437 -0.001653 0.999997 0.001897 255 255 255 1.000000
-0.342946 -0.078180 -0.048709 -1.000000 0.000000 0.000000 255 255 255 1.000000
-0.364707 -0.593934 0.434312 0.000000 0.078881 0.996884 255 255 255 1.000000
0.114231 -0.088072 -0.143522 0.000000 1.000000 0.000000 255 255 255 1.000000
0.379920 0.459524 -0.284848 0.000000 -0.132108 -0.991235 74 40 17 1.000000
-0.372992 -0.088072 -0.181261 0.000000 1.000000 0.000000 255 255 255 1.000000
-0.363529 -0.755408 0.483480 0.000000 0.078881 0.996884 76 43 22 1.000000
0.087975 -0.002920 -0.200260 0.000000 0.883707 -0.468040 192 172 125 1.000000
-0.355654 -0.688293 0.441778 0.000000 -0.078881 -0.996884 75 45 21 1.000000
-0.297931 0.000140 -0.012692 0.000000 1.000000 0.000000 237 223 193 1.000000
0.352698 -0.051794 0.096753 0.000000 -1.000000 0.000000 255 255 255 1.000000
0.261977 0.000140 -0.074864 0.000000 1.000000 0.000000 231 216 190 1.000000
0.357048 -0.503141 0.463519 0.000000 -0.078881 -0.996884 255 255 255 1.000000
-0.144688 -0.051886 0.394158 -0.000014 -0.996607 -0.082312 255 255 255 1.000000
0.033390 0.000140 -0.089707 0.000000 1.000000 0.000000 200 186 147 1.000000
0.106749 -0.088195 0.244524 -0.001653 0.999997 0.001897 255 255 255 1.000000
-0.373003 -0.088072 0.015070 0.000000 1.000000 0.000000 255 255 255 1.000000
-0.392331 -0.051794 0.292684 0.000000 1.000000 0.000000 78 45 22 1.000000
0.022787 0.609761 -0.288319 0.000000 1.000000 0.000000 78 45 24 1.000000
0.384188 -0.352268 -0.257089 -0.000000 -0.064330 0.997929 255 255 255 1.000000
-0.151121 0.000140 0.270261 0.000000 1.000000 0.000000 250 239 207 1.000000
-0.242206 0.261336 -0.241994 0.000000 0.085182 0.996365 199 185 143 1.000000
0.399591 -0.182001 0.401716 0.000000 0.078881 0.996884 255 255 255 1.000000
-0.136421 -0.088629 0.261035 -0.001653 0.999997 0.001897 255 255 255 1.000000
-0.278108 -0.088371 0.001987 0.001653 -0.999997 -0.001897 229 222 193 1.000000
-0.180489 0.269805 -0.242638 0.000000 0.086475 0.996254 222 208 167 1.000000
-0.062354 -0.088072 -0.015584 0.000000 -1.000000 0.000000 210 201 156 1.000000
0.329196 -0.052933 0.392776 0.000000 0.025287 0.999680 255 255 255 1.000000
0.342698 -0.008366 0.031670 0.738963 0.673746 0.000000 236 226 204 1.000000
-0.387097 0.057545 -0.216390 0.000000 0.034835 0.999393 75 42 21 1.000000
-0.110133 0.000140 0.141883 0.000000 -1.000000 0.000000 255 255 255 1.000000
-0.394880 -0.082288 -0.105784 -1.000000 0.000000 0.000000 64 34 14 1.000000
-0.091279 -0.089235 0.408009 -0.000000 -0.993951 0.109821 75 45 23 1.000000
-0.216130 0.537861 -0.282218 0.000000 0.147515 0.989060 255 255 255 1.000000
-0.231084 0.000140 0.213560 0.000000 -1.000000 0.000000 255 255 255 1.000000
-0.328545 -0.002640 -0.076174 0.446365 -0.894851 -0.000000 230 218 194 1.000000
-0.174762 0.000140 0.061144 0.000000 -1.000000 0.000000 255 255 255 1.000000
0.267182 0.427394 -0.266958 0.000000 -0.123924 -0.992292 201 193 160 1.000000
-0.343084 -0.793399 -0.275749 0.000000 0.250163 -0.968204 255 255 255 1.000000
0.003210 0.485850 -0.274568 0.000000 0.138019 0.990430 255 255 255 1.000000
0.401448 -0.057232 0.332033 -1.000000 0.000000 0.000000 255 255 255 1.000000
0.218810 0.000140 0.017773 0.000000 1.000000 0.000000 235 225 190 1.000000
0.281709 0.000140 0.179585 0.000000 -1.000000 0.000000 255 255 255 1.000000
-0.136520 -0.088072 -0.052019 0.000000 -1.000000 0.000000 202 190 162 1.000000
-0.382415 -0.515847 -0.234531 -0.000000 -0.103010 0.994680 67 34 11 1.000000
-0.356789 -0.393346 -0.223675 0.000000 0.073625 -0.997286 255 255 255 1.000000
0.377845 -0.629553 -0.247898 0.000000 0.130286 -0.991476 255 255 255 1.000000
0.084278 0.392915 -0.262469 0.000000 -0.115600 -0.993296 192 172 125 1.000000
0.318698 0.172228 -0.242942 0.000000 0.072853 0.997343 255 255 255 1.000000
0.043153 0.000140 0.150185 0.000000 1.000000 0.000000 198 184 146 1.000000
0.311535 0.496567 -0.275963 0.000000 0.140600 0.990066 255 255 255 1.000000
-0.198701 -0.088446 0.110747 -0.001653 0.999997 0.001897 255 255 255 1.000000
0.242688 0.465929 -0.271975 0.000000 -0.133219 -0.991087 215 200 163 1.000000
0.366480 -0.321812 0.449170 0.000000 -0.078881 -0.996884 255 255 255 1.000000
0.296273 -0.088072 0.344616 0.000000 -1.000000 0.000000 214 205 164 1.000000
0.127361 -0.050811 0.392748 0.000000 0.000000 1.000000 229 221 189 1.000000
0.197050 0.000140 0.190376 0.000000 1.000000 0.000000 227 214 168 1.000000
0.320959 0.000140 -0.127211 0.000000 -1.000000 0.000000 255 255 255 1.000000
-0.089224 -0.088575 0.273785 -0.001653 0.999997 0.001897 255 255 255 1.000000
0.305985 -0.088072 -0.176914 0.000000 1.000000 0.000000 255 255 255 1.000000
0.401448 -0.057869 0.391770 -1.000000 0.000000 0.000000 255 255 255 1.000000
-0.366428 -0.705770 -0.295196 0.000000 0.146600 -0.989196 68 35 14 1.000000
0.346948 -0.014695 -0.172418 0.997554 0.069902 0.000000 194 184 147 1.000000
-0.383935 -0.051794 -0.160086 0.000000 1.000000 0.000000 69 36 15 1.000000
0.331597 -0.001196 0.219710 -0.310692 -0.950511 0.000000 190 173 135 1.000000
0.387280 -0.587496 0.433802 0.000000 0.078881 0.996884 255 255 255 1.000000
-0.377359 -0.051794 0.205330 0.000000 1.000000 0.000000 80 47 26 1.000000
0.378550 -0.538094 0.466285 0.000000 0.078881 0.996884 77 44 23 1.000000
-0.351860 -0.379229 0.453714 0.000000 -0.078881 -0.996884 255 255 255 1.000000
-0.389975 0.166824 -0.221558 0.000000 0.061277 0.998121 68 34 18 1.000000
0.375921 0.539358 -0.261598 0.000000 0.147379 0.989080 71 38 17 1.000000
0.401448 -0.236020 0.441765 1.000000 0.000000 0.000000 72 42 22 1.000000
0.350663 -0.237271 -0.214998 -0.000000 -0.036186 0.999345 71 41 21 1.000000
0.080953 0.512779 -0.278216 0.000000 -0.144011 -0.989576 212 201 157 1.000000
-0.042792 0.000140 0.250839 0.000000 1.000000 0.000000 218 211 161 1.000000
-0.323186 -0.000642 0.039915 0.239321 -0.970940 -0.000000 212 204 154 1.000000
-0.315030 -0.039516 -0.214095 0.000000 0.000000 -1.000000 228 220 188 1.000000
0.375519 0.375726 -0.274300 0.000000 0.111824 0.993728 255 255 255 1.000000
-0.373228 -0.441931 0.422284 0.000000 -0.078881 -0.996884 65 32 11 1.000000
0.352231 0.072059 -0.217016 0.000000 0.038348 0.999264 72 41 24 1.000000
-0.104605 0.529705 -0.273821 0.000000 -0.146788 -0.989168 255 255 255 1.000000
-0.364743 0.489230 -0.254092 0.000000 -0.139290 -0.990252 255 255 255 1.000000
-0.168032 0.189206 -0.244165 0.000000 -0.075147 -0.997172 224 213 173 1.000000
-0.134380 -0.088527 0.209429 0.001653 -0.999997 -0.001897 229 215 177 1.000000
-0.100289 0.275582 -0.243222 0.000000 -0.087880 -0.996131 255 255 255 1.000000
-0.293394 0.000140 0.136792 0.000000 1.000000 0.000000 227 217 188 1.000000
0.246017 0.000140 -0.038643 0.000000 -1.000000 0.000000 255 255 255 1.000000
-0.394880 0.600624 -0.272310 1.000000 0.000000 0.000000 255 255 255 1.000000
-0.028050 -0.088072 0.010932 0.000000 1.000000 0.000000 255 255 255 1.000000
-0.234703 0.182619 -0.243690 0.000000 -0.074257 -0.997239 230 223 188 1.000000
0.229972 -0.088072 -0.165943 0.000000 -1.000000 0.000000 199 186 140 1.000000
0.399877 -0.051794 -0.141127 0.000000 -1.000000 0.000000 255 255 255 1.000000
0.176515 0.489142 -0.267786 0.000000 0.139727 0.990190 216 201 157 1.000000
0.049168 -0.088072 -0.113549 0.000000 1.000000 0.000000 255 255 255 1.000000
0.091939 -0.088072 0.115000 0.000000 -1.000000 0.000000 212 195 151 1.000000
-0.144757 0.000140 -0.139181 0.000000 1.000000 0.000000 238 231 201 1.000000
0.156076 -0.022865 0.392554 0.000000 0.122341 0.992488 214 203 161 1.000000
-0.342946 -0.040963 -0.090655 1.000000 0.000000 0.000000 255 255 255 1.000000
-0.386054 -0.210781 0.403994 0.000000 -0.078881 -0.996884 72 39 16 1.000000
0.397338 -0.667421 0.440126 0.000000 -0.078881 -0.996884 69 39 17 1.000000
0.248827 -0.088072 -0.113842 0.000000 -1.000000 0.000000 233 222 190 1.000000
0.380183 -0.470872 0.460965 0.000000 0.078881 0.996884 77 40 20 1.000000
0.222286 -0.003394 -0.201193 0.000000 0.864120 -0.503286 214 209 157 1.000000
0.101416 0.591571 -0.283691 0.000000 -0.155106 -0.987898 255 255 255 1.000000
-0.386896 0.413575 -0.244244 0.000000 -0.120986 -0.992654 255 255 255 1.000000
-0.258064 0.394577 -0.262686 0.000000 -0.116001 -0.993249 240 229 193 1.000000
0.195202 0.198763 -0.237486 0.000000 0.076542 0.997066 222 205 163 1.000000
-0.315220 -0.088088 -0.179572 0.001653 -0.999997 -0.001897 216 203 155 1.000000
0.347001 -0.088072 0.082937 0.000000 -1.000000 0.000000 227 225 183 1.000000
0.262483 0.571409 -0.287571 0.000000 -0.152199 -0.988350 190 178 142 1.000000
0.387738 -0.089834 -0.211985 0.006772 -0.999568 0.028616 69 39 17 1.000000
0.055757 -0.088298 0.254682 0.001653 -0.999997 -0.001897 235 224 192 1.000000
-0.308081 0.509142 -0.270541 0.000000 -0.144021 -0.989575 255 255 255 1.000000
0.400915 0.127709 -0.219419 0.000000 0.051813 0.998657 75 45 23 1.000000
-0.157082 0.572460 -0.280643 0.000000 0.152537 0.988298 196 182 144 1.000000
-0.090503 0.000140 -0.033102 0.000000 1.000000 0.000000 232 217 186 1.000000
-0.390597 -0.051794 -0.038262 0.000000 1.000000 0.000000 86 53 32 1.000000
0.258701 0.352317 -0.250973 0.000000 0.106515 0.994311 231 218 188 1.000000
0.367228 -0.035049 -0.248959 0.000000 -0.017240 -0.999851 63 29 6 1.000000
-0.387512 -0.711107 0.443583 0.000000 0.078881 0.996884 255 255 255 1.000000
-0.246667 0.514663 -0.271421 0.000000 0.144764 0.989466 199 185 144 1.000000
0.124738 -0.088072 0.146963 0.000000 1.000000 0.000000 255 255 255 1.000000
0.389142 -0.381780 -0.222842 -0.000000 -0.070851 0.997487 73 43 21 1.000000
0.056299 -0.088153 0.178817 -0.001653 0.999997 0.001897 255 255 255 1.000000
0.315553 0.250194 -0.248558 0.000000 -0.083384 -0.996517 227 220 187 1.000000
-0.086819 0.346020 -0.250337 0.000000 -0.104987 -0.994474 255 255 255 1.000000
0.363709 -0.051794 0.170541 0.000000 1.000000 0.000000 70 40 20 1.000000
0.365793 -0.443174 0.422382 0.000000 0.078881 0.996884 255 255 255 1.000000
-0.355400 -0.051794 0.037786 0.000000 1.000000 0.000000 62 32 12 1.000000
0.196540 -0.088166 0.307604 0.001653 -0.999997 -0.001897 212 204 154 1.000000
0.031882 0.000140 0.227425 0.000000 -1.000000 0.000000 255 255 255 1.000000
0.290533 -0.050203 0.392748 0.000000 0.000000 1.000000 228 220 188 1.000000
0.260692 0.000140 0.304584 0.000000 -1.000000 0.000000 255 255 255 1.000000
-0.394880 0.322257 -0.268349 -1.000000 0.000000 0.000000 79 46 25 1.000000
0.082060 0.000140 0.038768 0.000000 1.000000 0.000000 222 214 179 1.000000
0.179772 0.425540 -0.266717 0.000000 0.123477 0.992347 255 255 255 1.000000
-0.033648 0.552545 -0.284561 0.000000 -0.149565 -0.988752 229 215 184 1.000000
-0.279896 -0.046603 0.392748 0.000000 0.000000 1.000000 225 218 185 1.000000
0.343161 -0.088072 0.299493 0.000000 1.000000 0.000000 255 255 255 1.000000
-0.250876 0.000140 -0.039032 0.000000 1.000000 0.000000 250 244 214 1.000000
0.330435 -0.000802 -0.051963 -0.265414 -0.964134 0.000000 202 190 162 1.000000
-0.360945 0.119272 -0.253678 0.000000 0.049773 0.998761 255 255 255 1.000000
-0.280901 0.426702 -0.266868 0.000000 -0.123757 -0.992312 222 208 170 1.000000
-0.393024 -0.088072 -0.064201 0.000000 1.000000 0.000000 255 255 255 1.000000
0.386658 -0.173125 -0.213184 0.002402 -0.380908 0.924610 70 40 18 1.000000
0.109900 -0.088072 0.067176 0.000000 -1.000000 0.000000 221 224 173 1.000000
0.401448 -0.648760 0.474720 -1.000000 0.000000 0.000000 255 255 255 1.000000
-0.394880 0.119626 -0.220424 1.000000 0.000000 0.000000 255 255 255 1.000000
-0.266478 -0.088918 0.300241 0.001653 -0.999997 -0.001897 219 206 162 1.000000
0.188374 0.349639 -0.258002 0.000000 -0.105171 -0.994454 238 233 197 1.000000
-0.342991 0.623271 -0.309608 0.000000 -0.157539 -0.987513 76 46 24 1.000000
-0.120284 -0.088289 0.096554 -0.001653 0.999997 0.001897 255 255 255 1.000000
-0.391747 -0.288287 0.410126 0.000000 0.078881 0.996884 255 255 255 1.000000
0.146429 -0.014526 -0.211445 -0.000000 -0.449045 0.893509 255 255 255 1.000000
-0.200253 -0.088072 -0.191583 0.000000 1.000000 0.000000 255 255 255 1.000000
0.388234 -0.088072 0.150867 0.000000 -1.000000 0.000000 218 206 174 1.000000
-0.311138 0.000051 0.368152 0.000000 -0.995777 -0.091804 255 255 255 1.000000
0.234844 0.000140 0.084362 0.000000 1.000000 0.000000 248 239 208 1.000000
0.386853 0.245030 -0.227192 0.000000 0.080202 0.996779 64 30 14 1.000000
0.377461 0.191759 -0.257977 0.000000 0.067313 0.997732 255 255 255 1.000000
-0.367966 -0.183850 -0.249621 0.000000 0.023576 -0.999722 71 41 19 1.000000
0.382281 -0.506564 0.427398 0.000000 -0.078881 -0.996884 72 38 15 1.000000
0.238913 -0.088072 0.229001 0.000000 -1.000000 0.000000 208 190 155 1.000000
-0.315895 -0.088879 0.236205 -0.001653 0.999997 0.001897 255 255 255 1.000000
-0.359838 -0.088072 0.331500 0.000000 1.000000 0.000000 255 255 255 1.000000
0.337602 -0.089955 0.401488 0.000000 0.993951 -0.109821 255 255 255 1.000000
-0.040960 -0.088072 0.049955 0.000000 -1.000000 0.000000 229 232 197 1.000000
-0.176385 -0.088072 -0.123997 0.000000 -1.000000 0.000000 231 221 185 1.000000
-0.379278 -0.359934 -0.257642 -0.000000 -0.066186 0.997807 255 255 255 1.000000
0.356325 -0.088072 0.220587 0.000000 1.000000 0.000000 255 255 255 1.000000
0.358935 0.544111 -0.296979 0.000000 0.147955 0.988994 255 255 255 1.000000
0.089933 -0.090038 0.400739 0.000000 0.993951 -0.109821 255 255 255 1.000000
-0.171890 0.487349 -0.267553 0.000000 -0.139293 -0.990251 255 255 255 1.000000
-0.169473 -0.088530 0.180131 -0.001653 0.999997 0.001897 255 255 255 1.000000
0.006983 0.000140 -0.174821 0.000000 1.000000 0.000000 219 208 166 1.000000
0.174864 -0.088072 0.191936 0.000000 1.000000 0.000000 255 255 255 1.000000
-0.356371 -0.466693 -0.229566 -0.000000 -0.091215 0.995831 75 41 18 1.000000
-0.361373 -0.141881 0.434933 0.000000 0.078881 0.996884 87 50 28 1.000000
0.307536 -0.088072 0.263589 0.000000 1.000000 0.000000 255 255 255 1.000000
0.372691 -0.396877 0.455110 0.000000 -0.078881 -0.996884 255 255 255 1.000000
-0.111315 0.000140 -0.106008 0.000000 1.000000 0.000000 229 218 190 1.000000
0.388700 -0.088072 -0.083438 0.000000 1.000000 0.000000 255 255 255 1.000000
-0.365465 0.289085 -0.230924 0.000000 0.090861 0.995864 74 41 20 1.000000
-0.017973 0.202812 -0.237777 0.000000 -0.077101 -0.997023 255 255 255 1.000000
-0.349963 -0.318670 0.412531 0.000000 0.078881 0.996884 255 255 255 1.000000
0.378911 -0.370823 0.416657 0.000000 0.078881 0.996884 255 255 255 1.000000
-0.307761 0.609761 -0.291105 0.000000 1.000000 0.000000 75 42 19 1.000000
-0.376510 -0.051794 0.069425 0.000000 -1.000000 0.000000 255 255 255 1.000000
-0.021238 -0.088072 -0.075652 0.000000 -1.000000 0.000000 244 232 207 1.000000
0.306906 0.360113 -0.259060 0.000000 -0.107696 -0.994184 225 218 186 1.000000
0.159071 -0.088072 -0.056930 0.000000 1.000000 0.000000 255 255 255 1.000000
0.345334 -0.011796 -0.089713 -0.026397 0.999652 0.000000 226 214 186 1.000000
0.088104 0.000140 0.194215 0.000000 -1.000000 0.000000 255 255 255 1.000000
0.368701 -0.450639 -0.227944 0.000000 0.087361 -0.996177 255 255 255 1.000000
-0.164475 -0.067238 0.423207 0.000004 0.593583 0.804772 75 42 21 1.000000
0.358777 -0.262303 0.408070 0.000000 0.078881 0.996884 255 255 255 1.000000
-0.103243 0.195858 -0.244644 0.000000 -0.076046 -0.997104 236 226 191 1.000000
0.312144 0.000140 0.352905 0.000000 -1.000000 0.000000 255 255 255 1.000000
-0.376453 -0.088072 0.231473 0.000000 -1.000000 0.000000 79 46 25 1.000000
-0.123865 -0.088845 0.385815 -0.001653 0.999997 0.001897 255 255 255 1.000000
0.401448 -0.583548 -0.278327 -1.000000 0.000000 0.000000 255 255 255 1.000000
0.362383 0.290452 -0.231063 0.000000 -0.091192 -0.995833 255 255 255 1.000000
-0.358415 -0.279056 0.445787 0.000000 -0.078881 -0.996884 255 255 255 1.000000
-0.294046 0.000140 0.305580 0.000000 -1.000000 0.000000 255 255 255 1.000000
-0.356327 -0.088072 0.106106 0.000000 -1.000000 0.000000 74 39 19 1.000000
0.361178 -0.665694 0.476381 0.000000 0.078881 0.996884 75 45 21 1.000000
0.349514 -0.051511 -0.094341 1.000000 0.000000 0.000000 231 223 190 1.000000
-0.373457 -0.141847 -0.212734 -0.005071 -0.766484 0.642244 76 43 22 1.000000
0.170561 -0.087715 -0.211935 0.000000 0.060013 0.998198 255 255 255 1.000000
0.272696 -0.088072 0.277230 0.000000 -1.000000 0.000000 234 221 191 1.000000
-0.156826 -0.088765 0.315009 0.001653 -0.999997 -0.001897 230 227 196 1.000000
0.157817 0.000140 0.323675 0.000000 1.000000 0.000000 224 213 173 1.000000
-0.100764 -0.088072 -0.125023 0.000000 -1.000000 0.000000 233 222 187 1.000000
-0.167148 -0.088072 -0.171193 0.000000 -1.000000 0.000000 221 208 161 1.000000
0.349514 -0.040583 0.274867 -1.000000 0.000000 0.000000 255 255 255 1.000000
-0.350081 0.419841 -0.245059 0.000000 -0.122504 -0.992468 255 255 255 1.000000
0.385730 -0.299264 0.410995 0.000000 0.078881 0.996884 255 255 255 1.000000
-0.086250 -0.047204 -0.214095 0.000000 0.000000 -1.000000 225 218 185 1.000000
0.301619 -0.088072 -0.134531 0.000000 1.000000 0.000000 255 255 255 1.000000
0.349363 -0.023514 0.382069 -0.993944 -0.109890 0.000000 203 189 141 1.000000
-0.346344 -0.415978 -0.261679 -0.000000 -0.079746 0.996815 255 255 255 1.000000
-0.343340 -0.109313 -0.248549 0.000000 0.005540 -0.999985 69 39 15 1.000000
0.121493 0.000140 0.176400 0.000000 1.000000 0.000000 245 237 214 1.000000
-0.326669 -0.001753 -0.038646 0.373413 -0.927665 -0.000000 230 222 187 1.000000
0.045941 0.000140 0.083335 0.000000 -1.000000 0.000000 255 255 255 1.000000
-0.243509 0.000140 0.248605 0.000000 1.000000 0.000000 235 228 197 1.000000
0.007479 0.529917 -0.280951 0.000000 0.146405 0.989225 255 255 255 1.000000
-0.376787 -0.493281 -0.268716 0.000000 0.098454 -0.995142 74 40 17 1.000000
-0.298277 0.000140 0.245532 0.000000 -1.000000 0.000000 255 255 255 1.000000
0.189618 -0.089338 0.407080 -0.000000 -0.993951 0.109821 72 42 20 1.000000
-0.247785 0.000140 0.034501 0.000000 -1.000000 0.000000 255 255 255 1.000000
0.271150 -0.088072 0.203020 0.000000 1.000000 0.000000 255 255 255 1.000000
-0.207848 -0.088134 -0.061809 -0.001653 0.999997 0.001897 255 255 255 1.000000
-0.393666 -0.088072 0.103210 0.000000 -1.000000 0.000000 72 39 18 1.000000
0.016810 0.426818 -0.266883 0.000000 -0.123785 -0.992309 224 206 164 1.000000
0.149235 0.000140 -0.007070 0.000000 1.000000 0.000000 194 184 145 1.000000
0.388052 -0.017320 -0.214591 0.000000 0.020267 0.999795 60 26 10 1.000000
-0.231616 -0.088393 0.054129 0.001653 -0.999997 -0.001897 216 203 156 1.000000
-0.211461 -0.088697 0.231633 -0.001653 0.999997 0.001897 255 255 255 1.000000
0.400970 -0.206493 -0.249982 0.000000 0.029053 -0.999578 68 35 14 1.000000
-0.341927 -0.018711 0.194553 0.963814 -0.266575 -0.000000 209 202 157 1.000000
0.374394 -0.653773 -0.287635 0.000000 0.137286 -0.990531 76 43 24 1.000000
0.254327 -0.053485 -0.213993 0.000000 0.060013 0.998198 255 255 255 1.000000
0.345628 -0.012235 0.163713 0.263413 -0.964683 -0.000000 212 204 155 1.000000
-0.344822 -0.218102 -0.250483 -0.000000 -0.031864 0.999492 255 255 255 1.000000
-0.265932 -0.088999 0.343264 0.001653 -0.999997 -0.001897 194 180 142 1.000000
0.150258 0.000140 0.242403 0.000000 1.000000 0.000000 194 184 145 1.000000
0.267805 0.219883 -0.239007 0.000000 0.079459 0.996838 229 216 188 1.000000
0.400682 -0.088072 -0.009828 0.000000 -1.000000 0.000000 214 205 160 1.000000
-0.307747 0.167985 -0.235269 0.000000 -0.072289 -0.997384 255 255 255 1.000000
0.225542 -0.088072 0.058070 0.000000 1.000000 0.000000 255 255 255 1.000000
0.371296 -0.088072 -0.167558 0.000000 -1.000000 0.000000 203 190 144 1.000000
-0.356025 -0.038819 -0.214281 0.000000 0.016597 0.999862 66 32 9 1.000000
0.261552 -0.088151 0.356291 0.001653 -0.999997 -0.001897 228 214 181 1.000000
0.308329 0.000140 0.075863 0.000000 -1.000000 0.000000 255 255 255 1.000000
-0.394880 -0.249598 -0.249719 -1.000000 0.000000 0.000000 76 43 22 1.000000
-0.373191 -0.687351 0.478095 0.000000 0.078881 0.996884 80 50 28 1.000000
-0.079722 0.000140 0.313421 0.000000 -1.000000 0.000000 255 255 255 1.000000
-0.228993 -0.088072 -0.127880 0.000000 1.000000 0.000000 255 255 255 1.000000
0.354502 0.509868 -0.256893 0.000000 0.143804 0.989606 71 41 19 1.000000
-0.394880 0.432037 -0.278876 -1.000000 0.000000 0.000000 72 38 15 1.000000
-0.347668 -0.088072 0.173527 0.000000 -1.000000 0.000000 81 48 25 1.000000
0.400633 -0.728942 -0.298893 0.000000 0.149408 -0.988776 67 34 13 1.000000
-0.326172 -0.090285 0.398503 0.000000 0.993951 -0.109821 255 255 255 1.000000
-0.345916 -0.254675 -0.215749 -0.000000 -0.040361 0.999185 79 45 22 1.000000
0.399558 -0.498797 -0.269273 0.000000 0.099789 -0.995009 65 32 11 1.000000
-0.362847 -0.088072 -0.128927 0.000000 -1.000000 0.000000 82 49 28 1.000000
-0.020936 -0.088444 0.264644 -0.001653 0.999997 0.001897 255 255 255 1.000000
0.026109 -0.017830 -0.212775 -0.000000 -0.308619 0.951186 255 255 255 1.000000
-0.390315 0.222197 -0.260170 0.000000 0.074679 0.997208 255 255 255 1.000000
0.382608 -0.422955 -0.262181 -0.000000 -0.081433 0.996679 255 255 255 1.000000
-0.334193 -0.006459 -0.156052 -0.664325 0.747444 0.000000 217 209 158 1.000000
0.029945 -0.063291 0.419855 0.000000 -0.698308 -0.715798 255 255 255 1.000000
-0.281702 0.228748 -0.239646 0.000000 -0.080683 -0.996740 255 255 255 1.000000
-0.064822 0.527100 -0.280501 0.000000 -0.146012 -0.989283 229 217 189 1.000000
0.236339 0.399933 -0.263383 0.000000 0.117295 0.993097 255 255 255 1.000000
0.311234 -0.088072 -0.069718 0.000000 1.000000 0.000000 255 255 255 1.000000
-0.346144 -0.570709 -0.240238 0.000000 0.116161 -0.993230 255 255 255 1.000000
-0.355007 0.311122 -0.267774 0.000000 -0.096197 -0.995362 73 43 21 1.000000
-0.361344 -0.210477 0.440361 0.000000 0.078881 0.996884 80 47 24 1.000000
-0.374440 -0.796188 0.455449 0.000000 1.000000 0.000000 255 255 255 1.000000
-0.019371 -0.088587 0.340935 0.001653 -0.999997 -0.001897 232 221 189 1.000000
-0.010184 -0.088334 0.215899 0.001653 -0.999997 -0.001897 212 199 174 1.000000
-0.179940 0.540261 -0.282601 0.000000 0.147850 0.989010 255 255 255 1.000000
0.391122 -0.541280 -0.237101 -0.000000 -0.109107 0.994030 65 32 13 1.000000
-0.252152 0.000140 0.361840 0.000000 1.000000 0.000000 249 242 212 1.000000
0.349514 -0.135364 0.401991 1.000000 0.000000 0.000000 255 255 255 1.000000
-0.115064 0.409541 -0.264634 0.000000 -0.119615 -0.992820 197 186 146 1.000000
0.361146 -0.276753 0.445605 0.000000 0.078881 0.996884 72 42 18 1.000000
0.109294 -0.088072 -0.072726 0.000000 -1.000000 0.000000 240 228 202 1.000000
0.388195 0.071700 -0.251624 0.000000 -0.038262 -0.999268 75 42 21 1.000000
-0.056798 -0.088072 -0.190628 0.000000 1.000000 0.000000 255 255 255 1.000000
-0.034758 -0.087814 0.420868 -0.000000 -0.993951 0.109821 80 46 23 1.000000
0.100336 0.326532 -0.255668 0.000000 0.099599 0.995028 255 255 255 1.000000
0.195721 0.457455 -0.270871 0.000000 -0.131176 -0.991359 185 180 136 1.000000
0.077477 0.165248 -0.242439 0.000000 0.071910 0.997411 255 255 255 1.000000
0.328202 0.331507 -0.248871 0.000000 0.101464 0.994839 195 184 143 1.000000
-0.058971 -0.041605 0.392748 0.000000 0.000000 1.000000 224 217 184 1.000000
-0.312043 -0.088549 0.066285 0.001653 -0.999997 -0.001897 255 248 219 1.000000
0.349514 -0.107528 -0.227625 -1.000000 0.000000 0.000000 64 34 12 1.000000
0.399751 -0.613087 0.472219 0.000000 0.078881 0.996884 73 43 21 1.000000
-0.209926 -0.015993 0.390806 0.000000 0.378808 0.925475 218 205 161 1.000000
-0.342946 -0.163284 -0.213752 1.000000 0.000000 0.000000 69 35 19 1.000000
0.030952 0.251439 -0.248648 0.000000 0.083552 0.996503 255 255 255 1.000000
-0.362541 0.574435 -0.267194 0.000000 0.151628 0.988438 71 38 17 1.000000
-0.232336 -0.088072 -0.172243 0.000000 -1.000000 0.000000 223 210 164 1.000000
0.075253 -0.088072 -0.182241 0.000000 -1.000000 0.000000 216 203 154 1.000000
-0.391239 -0.262201 0.444453 0.000000 -0.078881 -0.996884 255 255 255 1.000000
0.382928 0.615144 -0.273688 0.000000 -0.156556 -0.987669 255 255 255 1.000000
0.054973 0.222062 -0.246532 0.000000 0.079585 0.996828 255 255 255 1.000000
-0.051354 0.334328 -0.249156 0.000000 -0.102149 -0.994769 255 255 255 1.000000
-0.198400 -0.088826 0.311131 -0.001653 0.999997 0.001897 255 255 255 1.000000
-0.181429 0.303638 -0.253355 0.000000 -0.094076 -0.995565 196 185 146 1.000000
0.140657 0.488143 -0.267656 0.000000 -0.139485 -0.990224 255 255 255 1.000000
0.401448 -0.728151 -0.263473 1.000000 0.000000 0.000000 75 42 19 1.000000
-0.224017 0.000140 0.008264 0.000000 1.000000 0.000000 205 195 157 1.000000
0.057461 0.000140 0.301944 0.000000 -1.000000 0.000000 255 255 255 1.000000
-0.215401 0.000140 0.077995 0.000000 -1.000000 0.000000 255 255 255 1.000000
0.164809 0.000140 -0.183037 0.000000 -1.000000 0.000000 255 255 255 1.000000
0.145559 0.364783 -0.259532 0.000000 -0.108821 -0.994061 230 220 196 1.000000
-0.153765 0.385473 -0.254322 0.000000 -0.114555 -0.993417 255 255 255 1.000000
-0.087568 -0.088651 0.315215 0.001653 -0.999997 -0.001897 193 183 146 1.000000
0.140847 0.267970 -0.249838 0.000000 -0.085784 -0.996314 224 213 188 1.000000
0.092593 0.000140 0.353149 0.000000 1.000000 0.000000 232 224 190 1.000000
0.363348 0.340903 -0.270782 0.000000 -0.103404 -0.994639 70 37 16 1.000000
-0.361265 0.141088 -0.219997 0.000000 -0.055049 -0.998484 255 255 255 1.000000
-0.339506 -0.012923 0.159177 0.526767 0.850010 0.000000 212 206 161 1.000000
0.232038 -0.088072 0.014230 0.000000 1.000000 0.000000 255 255 255 1.000000
0.194302 0.000140 0.155254 0.000000 -1.000000 0.000000 255 255 255 1.000000
0.203551 0.000140 -0.038180 0.000000 1.000000 0.000000 217 205 161 1.000000
0.035526 0.286975 -0.244372 0.000000 -0.090648 -0.995883 255 255 255 1.000000
0.365988 -0.088072 -0.053328 0.000000 1.000000 0.000000 255 255 255 1.000000
0.400988 0.487367 -0.288472 0.000000 0.138840 0.990315 255 255 255 1.000000
0.065665 0.477229 -0.273446 0.000000 -0.135942 -0.990717 216 207 165 1.000000
-0.394880 0.015164 -0.216020 1.000000 0.000000 0.000000 255 255 255 1.000000
0.234093 -0.001608 0.376044 0.000000 0.934003 0.357264 217 201 166 1.000000
-0.240875 0.320475 -0.247756 0.000000 0.098786 0.995109 223 209 167 1.000000
-0.393421 -0.226379 0.441619 0.000000 -0.078881 -0.996884 255 255 255 1.000000
-0.000050 -0.075557 0.393349 0.000000 -0.025287 -0.999680 70 37 14 1.000000
0.273959 -0.088072 -0.064209 0.000000 1.000000 0.000000 255 255 255 1.000000
-0.112167 -0.088145 0.027532 -0.001653 0.999997 0.001897 255 255 255 1.000000
-0.311607 -0.088445 0.011760 -0.001653 0.999997 0.001897 255 255 255 1.000000
-0.343858 0.430886 -0.281120 0.000000 0.125178 0.992134 255 255 255 1.000000
-0.346282 -0.513908 -0.270799 -0.000000 -0.103445 0.994635 255 255 255 1.000000
0.316666 0.000140 0.187740 0.000000 -1.000000 0.000000 255 255 255 1.000000
-0.379699 -0.764576 -0.304578 0.000000 0.153723 -0.988114 67 34 11 1.000000
0.090470 -0.088116 0.189074 -0.001653 0.999997 0.001897 255 255 255 1.000000
-0.162412 -0.088452 0.145254 0.001653 -0.999997 -0.001897 214 208 160 1.000000
0.401437 0.290870 -0.265728 0.000000 0.091293 0.995824 255 255 255 1.000000
-0.351971 0.260362 -0.262919 0.000000 -0.083908 -0.996473 69 34 16 1.000000
-0.333362 -0.005731 0.091152 0.631893 -0.775056 -0.000000 194 172 128 1.000000
-0.377760 -0.334522 0.450176 0.000000 -0.078881 -0.996884 255 255 255 1.000000
-0.166953 0.000140 -0.031082 0.000000 -1.000000 0.000000 255 255 255 1.000000
-0.347524 -0.088072 -0.013510 0.000000 -1.000000 0.000000 72 39 18 1.000000
-0.217053 -0.059593 0.415705 0.000000 0.795532 0.605912 77 44 23 1.000000
-0.053942 -0.088222 0.119003 0.001653 -0.999997 -0.001897 228 214 176 1.000000
0.060269 -0.071377 0.393243 0.000000 -0.025287 -0.999680 76 43 22 1.000000
0.170418 0.578807 -0.281655 0.000000 -0.153390 -0.988166 255 255 255 1.000000
-0.230715 0.000140 -0.158276 0.000000 -1.000000 0.000000 255 255 255 1.000000
0.162002 0.000140 0.205255 0.000000 -1.000000 0.000000 255 255 255 1.000000
-0.266706 -0.057694 -0.213740 0.000000 0.060013 0.998198 255 255 255 1.000000
0.380251 -0.796188 -0.276678 0.000000 1.000000 0.000000 255 255 255 1.000000
-0.016406 -0.088271 0.177536 -0.001653 0.999997 0.001897 255 255 255 1.000000
0.116329 0.198276 -0.244818 0.000000 0.076372 0.997079 255 255 255 1.000000
0.329287 -0.059272 -0.213645 0.000000 0.060013 0.998198 255 255 255 1.000000
-0.265619 -0.088701 0.186416 -0.001653 0.999997 0.001897 255 255 255 1.000000
0.323853 0.389854 -0.262071 0.000000 0.114860 0.993382 255 255 255 1.000000
-0.280313 -0.088599 0.120161 -0.001653 0.999997 0.001897 255 255 255 1.000000
-0.077989 -0.088434 0.209756 -0.001653 0.999997 0.001897 255 255 255 1.000000
0.323266 0.449600 -0.269849 0.000000 -0.129282 -0.991608 223 215 183 1.000000
-0.317993 0.242554 -0.248008 0.000000 0.082353 0.996603 255 255 255 1.000000
0.194305 0.000140 0.090971 0.000000 -1.000000 0.000000 255 255 255 1.000000
-0.122233 0.000140 0.007996 0.000000 -1.000000 0.000000 255 255 255 1.000000
0.364993 -0.085999 0.430462 -0.000172 0.152064 0.988371 72 42 20 1.000000
0.401448 -0.086886 0.094579 -1.000000 0.000000 0.000000 255 255 255 1.000000
-0.046657 0.000140 -0.082919 0.000000 1.000000 0.000000 208 193 145 1.000000
-0.101200 0.464374 -0.264562 0.000000 0.133721 0.991019 228 220 188 1.000000
-0.112732 0.000140 0.263751 0.000000 -1.000000 0.000000 255 255 255 1.000000
0.289328 0.000140 0.001986 0.000000 1.000000 0.000000 230 217 185 1.000000
0.090239 -0.088072 -0.038393 0.000000 -1.000000 0.000000 191 180 147 1.000000
-0.394880 -0.057160 -0.247819 -1.000000 0.000000 0.000000 69 36 15 1.000000
-0.224163 -0.028629 -0.214095 0.000000 0.000000 1.000000 255 255 255 1.000000
-0.282678 -0.088614 0.413625 -0.000000 -0.993951 0.109821 72 39 18 1.000000
-0.112408 0.314477 -0.247150 0.000000 -0.097329 -0.995252 255 255 255 1.000000
0.357089 -0.088072 -0.115853 0.000000 -1.000000 0.000000 231 220 188 1.000000
0.056302 0.000140 0.258471 0.000000 1.000000 0.000000 227 213 175 1.000000
0.144322 0.000140 0.069652 0.000000 1.000000 0.000000 209 200 169 1.000000
0.401295 -0.465329 -0.229428 0.000000 0.090888 -0.995861 255 255 255 1.000000
-0.059342 0.000140 -0.051121 0.000000 1.000000 0.000000 196 181 140 1.000000
-0.040204 -0.025827 -0.214095 0.000000 0.000000 1.000000 255 255 255 1.000000
0.381067 -0.717286 0.480464 0.000000 0.078881 0.996884 68 38 16 1.000000
-0.377355 0.526127 -0.259487 0.000000 0.145775 0.989318 82 49 28 1.000000
0.401448 -0.060252 0.040290 -1.000000 0.000000 0.000000 255 255 255 1.000000
0.203089 0.401600 -0.256391 0.000000 0.118475 0.992957 211 194 153 1.000000
0.077070 0.350852 -0.250825 0.000000 -0.106160 -0.994349 255 255 255 1.000000
-0.184048 0.000140 0.339820 0.000000 1.000000 0.000000 226 215 176 1.000000
-0.348138 0.189668 -0.257827 0.000000 0.066807 0.997766 255 255 255 1.000000
0.085454 -0.088072 -0.115101 0.000000 -1.000000 0.000000 230 219 187 1.000000
0.027230 -0.088072 0.056331 0.000000 1.000000 0.000000 255 255 255 1.000000
-0.360449 -0.796188 -0.307519 0.000000 1.000000 0.000000 255 255 255 1.000000
-0.199313 -0.088611 0.197105 -0.001653 0.999997 0.001897 255 255 255 1.000000
-0.213162 0.245037 -0.248186 0.000000 -0.082688 -0.996575 231 223 194 1.000000
-0.301693 -0.088186 -0.116104 -0.001653 0.999997 0.001897 255 255 255 1.000000
-0.342946 -0.038967 0.258424 1.000000 0.000000 0.000000 255 255 255 1.000000
0.098203 0.265990 -0.242329 0.000000 0.085825 0.996310 227 214 179 1.000000
-0.167845 0.000140 0.198400 0.000000 1.000000 0.000000 194 184 147 1.000000
-0.371716 -0.743178 0.446121 0.000000 -0.078881 -0.996884 60 30 8 1.000000
0.012231 0.000140 -0.063448 0.000000 -1.000000 0.000000 255 255 255 1.000000
-0.385352 0.374437 -0.274170 0.000000 -0.111513 -0.993763 68 35 14 1.000000
-0.343057 0.378826 -0.274613 0.000000 -0.112573 -0.993643 64 34 14 1.000000
-0.001887 0.000140 0.295869 0.000000 -1.000000 0.000000 255 255 255 1.000000
-0.366134 -0.547157 -0.274158 -0.000000 -0.111485 0.993766 255 255 255 1.000000
0.327622 -0.001668 -0.197567 -0.000000 -0.931422 0.363942 255 255 255 1.000000
-0.061134 0.217019 -0.238801 0.000000 0.079063 0.996870 249 241 208 1.000000
0.014728 0.185362 -0.236520 0.000000 0.074690 0.997207 185 180 136 1.000000
-0.106725 0.000140 0.055362 0.000000 -1.000000 0.000000 255 255 255 1.000000
-0.391252 -0.157103 0.436137 0.000000 0.078881 0.996884 73 40 19 1.000000
-0.213619 0.209454 -0.238256 0.000000 -0.078018 -0.996952 255 255 255 1.000000
-0.342946 -0.245251 0.407794 -1.000000 0.000000 0.000000 255 255 255 1.000000
0.367835 0.122270 -0.253807 0.000000 -0.050498 -0.998724 77 44 23 1.000000
-0.230942 -0.088553 0.138682 0.001653 -0.999997 -0.001897 216 200 164 1.000000
0.012426 -0.088072 -0.128509 0.000000 1.000000 0.000000 255 255 255 1.000000
0.383072 -0.066391 -0.248508 0.000000 -0.008319 -0.999965 84 50 27 1.000000
0.208945 -0.034348 -0.214095 0.000000 0.000000 -1.000000 220 213 181 1.000000
