ply
format ascii 1.0
element vertex 1279
property float x
property float y
property float z
property uchar red
property uchar green
property uchar blue
end_header
-0.023768 0.392064 -0.365996 153 0 76
0.267637 -0.087625 -0.284795 76 153 0
-0.257872 0.736745 -0.427714 76 153 0
0.101658 -0.031924 0.254761 255 0 0
0.323061 -0.031924 0.491175 255 0 0
-0.177960 0.442647 -0.349752 76 153 0
0.183818 -0.031924 0.040822 255 0 0
-0.164183 -0.132006 0.425802 204 51 127
-0.291064 0.026846 -0.279529 0 127 127
0.066754 0.046785 -0.268151 76 153 0
-0.207606 -0.137772 0.463100 255 0 0
0.164876 0.339010 -0.302955 76 153 0
0.165635 -0.031924 0.138593 255 0 0
-0.309015 -0.729019 -0.367781 153 0 76
-0.251384 0.380658 -0.310487 76 153 0
0.336065 -0.031924 0.003081 255 0 0
-0.287870 -0.031924 -0.064962 255 0 0
0.186388 0.057404 -0.268882 76 153 0
0.287472 -0.031924 0.483172 255 0 0
-0.019748 0.390813 -0.339215 76 153 0
0.008630 0.559428 -0.376525 76 153 0
0.135315 -0.031924 -0.225103 255 0 0
0.226044 -0.031924 0.530024 255 0 0
-0.357410 -0.363554 0.437098 76 0 153
-0.262373 0.344014 -0.328673 76 153 0
0.075456 -0.031924 -0.247714 255 0 0
0.103060 -0.137772 0.493192 255 0 0
0.340640 -0.156521 0.295902 153 0 76
-0.203056 -0.137772 0.368178 255 0 0
0.226672 -0.075280 -0.288472 76 153 0
0.166995 -0.137772 0.459789 255 0 0
-0.105568 -0.137772 0.350038 255 0 0
-0.115379 -0.031924 0.097197 255 0 0
0.316656 -0.031924 0.329450 255 0 0
-0.182059 -0.137772 0.524376 255 0 0
0.005336 0.542444 -0.345242 76 153 0
-0.245377 -0.137772 0.311592 255 0 0
-0.233609 -0.031924 -0.101001 255 0 0
-0.169717 -0.137467 -0.230205 76 0 153
-0.298910 0.143910 -0.284725 0 127 127
0.189957 -0.128878 -0.287734 76 153 0
-0.236877 -0.023071 -0.264145 76 153 0
0.298211 -0.338715 -0.307941 76 153 0
-0.192040 -0.031924 0.294817 255 0 0
-0.061751 0.384545 -0.384107 153 0 76
0.192965 0.080720 -0.297015 76 153 0
0.246645 0.675523 -0.408777 76 153 0
-0.298976 0.204754 -0.300942 0 127 127
0.322701 -0.031924 0.210296 255 0 0
0.239693 -0.031924 0.143761 255 0 0
0.029874 0.495546 -0.334065 76 153 0
0.201167 -0.137772 0.192745 255 0 0
-0.281254 -0.646272 -0.336067 153 0 76
0.116026 0.036028 -0.267409 76 153 0
-0.291064 -0.603682 -0.328676 153 0 76
-0.324070 -0.132037 0.413270 204 51 127
0.323173 -0.074642 0.550200 255 0 0
0.366950 -0.392312 0.436726 0 127 127
-0.293676 -0.472188 -0.308565 153 0 76
-0.119462 0.337424 -0.329559 76 153 0
0.307477 -0.031924 -0.245821 255 0 0
0.220658 0.787735 -0.416569 76 153 0
0.234911 0.013451 -0.292378 76 153 0
0.178248 -0.137772 -0.142526 255 0 0
0.190292 0.695702 -0.414777 76 153 0
0.084691 -0.120422 0.550200 255 0 0
0.332503 -0.132006 0.425182 204 51 127
0.086993 -0.150266 0.439654 204 51 127
-0.237694 0.601033 -0.360266 76 153 0
-0.230326 0.191361 -0.308347 76 153 0
0.355049 -0.713571 0.437785 0 127 127
0.267130 -0.031924 0.396827 255 0 0
-0.216603 -0.031924 0.204778 255 0 0
0.282543 -0.031924 0.138764 255 0 0
-0.012580 -0.031924 0.014772 255 0 0
-0.096877 0.290534 -0.295234 76 153 0
0.128734 -0.132385 0.424547 204 51 127
-0.237130 0.099966 -0.298765 76 153 0
-0.373847 -0.655500 0.454760 76 0 153
-0.221477 -0.031924 -0.051298 255 0 0
0.240818 0.495744 -0.361315 76 153 0
-0.255334 -0.059148 0.550200 255 0 0
0.143061 0.122612 -0.274368 76 153 0
0.168013 0.520095 -0.367119 76 153 0
0.192125 0.246548 -0.315292 76 153 0
0.111501 0.078612 -0.270344 76 153 0
-0.106167 0.724600 -0.395890 76 153 0
-0.355090 -0.137798 0.290537 0 0 255
0.084128 -0.031924 0.496472 255 0 0
0.294228 -0.673076 -0.339544 76 153 0
-0.012323 -0.136710 -0.287626 76 153 0
0.226117 0.062618 -0.295767 76 153 0
0.352556 -0.036827 -0.080529 255 0 0
0.217667 -0.137772 0.457747 255 0 0
0.344520 -0.050789 -0.184229 255 0 0
0.048641 0.121907 -0.274300 76 153 0
-0.357881 -0.033840 0.546746 255 0 0
-0.062647 -0.031924 -0.242964 255 0 0
0.110463 0.429033 -0.346900 76 153 0
-0.356615 -0.692134 0.437159 76 0 153
0.082237 -0.031924 0.207472 255 0 0
-0.055074 0.041225 -0.267768 76 153 0
-0.192397 0.495968 -0.361369 76 153 0
0.244280 -0.137772 0.452581 255 0 0
-0.059212 -0.031924 -0.063084 255 0 0
0.214336 -0.031924 -0.194826 255 0 0
0.118271 0.235442 -0.313835 76 153 0
0.041835 0.394590 -0.313007 76 153 0
-0.317370 -0.155594 0.160222 0 0 255
-0.290724 -0.209165 -0.267989 153 0 76
-0.311989 0.345149 -0.337896 0 127 127
-0.021688 -0.138638 -0.226787 76 0 153
0.079246 -0.031924 -0.117579 255 0 0
-0.244278 0.533966 -0.370424 76 153 0
0.268387 -0.137772 -0.244817 255 0 0
-0.131946 -0.129185 0.550169 255 0 0
0.096666 0.627004 -0.394610 76 153 0
-0.296821 -0.353858 -0.290293 153 0 76
-0.344709 -0.137772 0.111497 255 0 0
-0.145137 -0.031924 0.078031 255 0 0
0.021167 -0.031924 0.213339 255 0 0
-0.106090 -0.032406 0.544100 255 0 0
0.013826 0.002078 -0.291668 76 153 0
-0.347134 -0.102051 -0.093626 255 0 0
0.132517 0.709657 -0.391320 76 153 0
0.197486 -0.137772 0.150856 255 0 0
0.007602 -0.031924 0.259345 255 0 0
-0.119315 -0.031924 0.370834 255 0 0
-0.147431 0.173257 -0.306093 76 153 0
-0.295358 -0.137772 0.177704 255 0 0
0.124578 -0.137772 -0.130967 255 0 0
-0.167065 -0.031924 0.092302 255 0 0
0.263289 0.360250 -0.333687 76 153 0
-0.358535 -0.549690 0.437000 76 0 153
-0.250627 -0.137772 -0.237738 255 0 0
0.369354 -0.080033 0.101361 255 0 0
-0.206879 -0.128726 -0.287736 76 153 0
0.011127 0.522288 -0.367641 76 153 0
0.112050 -0.031924 0.045175 255 0 0
-0.065029 0.132370 -0.301896 76 153 0
0.341674 -0.137772 0.157846 255 0 0
-0.367260 -0.401197 0.455946 76 0 153
0.207115 0.282615 -0.320794 76 153 0
-0.236857 0.391948 -0.358169 153 0 76
-0.172138 0.126033 -0.274698 76 153 0
0.384431 -0.137772 0.522581 255 0 0
-0.314599 -0.156593 -0.005546 0 0 255
-0.143271 0.230120 -0.286507 76 153 0
0.365988 -0.123941 0.062652 255 0 0
-0.261674 0.314251 -0.325620 76 153 0
-0.118830 -0.031924 0.486217 255 0 0
-0.300735 -0.156223 -0.078313 0 0 255
0.360469 -0.156548 0.269923 153 0 76
0.338116 -0.137772 0.005097 255 0 0
0.194738 0.156107 -0.304190 76 153 0
-0.335247 -0.156546 0.073493 0 0 255
-0.086564 0.783312 -0.442966 76 153 0
-0.152253 0.371104 -0.335650 76 153 0
-0.345629 -0.137763 0.177821 0 0 255
0.056146 0.388479 -0.383712 153 0 76
-0.207770 0.774280 -0.440008 76 153 0
0.132697 0.592907 -0.385485 76 153 0
-0.397224 -0.036268 0.496628 255 0 0
-0.047670 -0.137772 0.242841 255 0 0
-0.044441 -0.031924 0.131571 255 0 0
0.262611 0.130813 -0.301746 76 153 0
0.056067 -0.031924 -0.198925 255 0 0
0.129492 -0.031924 0.170468 255 0 0
-0.020553 -0.137772 0.377599 255 0 0
-0.074239 0.368831 -0.335239 76 153 0
0.078431 0.391114 -0.339269 76 153 0
0.215961 0.642949 -0.399092 76 153 0
-0.015822 0.195227 -0.282163 76 153 0
-0.072241 0.647299 -0.372779 76 153 0
-0.187353 0.075795 -0.296675 76 153 0
-0.005066 0.181528 -0.307123 76 153 0
0.217145 -0.049213 0.550200 255 0 0
-0.392715 -0.079966 0.430554 255 0 0
0.247155 0.782508 -0.414857 76 153 0
0.314941 -0.551392 -0.340451 76 153 0
-0.145382 -0.031924 -0.214218 255 0 0
0.214814 0.710554 -0.391586 76 153 0
-0.180101 -0.031924 0.420989 255 0 0
0.373723 -0.568412 0.456168 0 127 127
0.267637 0.746565 -0.403412 76 153 0
0.286854 -0.137772 0.293519 255 0 0
0.099995 -0.031924 0.131975 255 0 0
0.101734 0.737191 -0.427860 76 153 0
0.263291 0.206325 -0.283544 76 153 0
-0.382816 -0.085469 0.316710 255 0 0
0.263190 0.378354 -0.310070 76 153 0
-0.358270 -0.809432 0.437023 76 0 153
0.155051 -0.137772 0.381583 255 0 0
-0.024813 0.224398 -0.312460 76 153 0
0.365537 -0.610215 0.436848 0 127 127
-0.302922 -0.135171 0.547631 255 0 0
-0.205756 -0.156593 0.423410 204 51 127
-0.315849 -0.061675 0.550200 255 0 0
0.229335 -0.132124 0.426019 204 51 127
0.221808 -0.156564 0.413356 204 51 127
-0.056050 -0.137772 0.353715 255 0 0
-0.015243 0.353178 -0.305518 76 153 0
-0.376971 -0.060352 0.249500 255 0 0
0.036453 -0.137772 -0.112370 255 0 0
-0.262373 0.761965 -0.413161 76 153 0
-0.300459 -0.097267 -0.261105 255 0 0
-0.255905 -0.031924 -0.060472 255 0 0
0.233905 0.591715 -0.385165 76 153 0
0.072693 -0.137772 -0.046265 255 0 0
0.358909 -0.152297 0.174225 153 0 76
0.023966 -0.031924 0.032790 255 0 0
-0.280234 0.069926 -0.261079 0 127 127
-0.125663 -0.137772 -0.178043 255 0 0
-0.230713 -0.031924 0.088461 255 0 0
0.327808 -0.058899 -0.251778 255 0 0
0.310791 -0.137772 0.018718 255 0 0
-0.383066 -0.131754 0.325551 255 0 0
0.336873 -0.135762 0.546870 255 0 0
0.226727 -0.137772 0.069150 255 0 0
0.024064 0.718200 -0.421639 76 153 0
0.185217 -0.137772 0.504568 255 0 0
-0.336007 -0.125126 -0.221591 255 0 0
0.366298 -0.032746 0.127175 255 0 0
0.064873 -0.137772 -0.179201 255 0 0
-0.310999 -0.031924 0.255306 255 0 0
0.046891 0.006627 -0.291908 76 153 0
0.301100 0.179528 -0.294205 127 0 127
-0.373335 -0.051432 0.207679 255 0 0
0.169902 0.795313 -0.425498 76 153 0
-0.184913 0.254294 -0.289705 76 153 0
-0.351852 -0.137772 0.357213 255 0 0
-0.134374 -0.137772 -0.055964 255 0 0
0.168236 -0.143082 -0.287539 76 153 0
0.029347 -0.031924 -0.126354 255 0 0
-0.080326 -0.031924 0.213507 255 0 0
0.054010 0.371454 -0.308823 76 153 0
0.143906 0.658696 -0.376167 76 153 0
-0.311830 -0.156334 -0.242744 76 0 153
0.025362 0.227411 -0.312835 76 153 0
0.095098 0.369155 -0.335298 76 153 0
0.267637 0.691001 -0.391522 76 153 0
-0.285402 -0.139635 -0.200205 0 0 255
-0.119614 -0.137772 0.314298 255 0 0
-0.063600 -0.031924 0.387430 255 0 0
0.007924 -0.137772 -0.233950 255 0 0
-0.246893 -0.031924 0.443316 255 0 0
0.036268 0.611128 -0.362968 76 153 0
-0.374407 -0.434412 0.436198 76 0 153
-0.353382 -0.771930 0.437444 76 0 153
0.028089 -0.107729 0.550200 255 0 0
0.140569 -0.137772 -0.214362 255 0 0
-0.262143 -0.124646 0.550200 255 0 0
0.351233 -0.031924 0.432149 255 0 0
-0.301817 -0.424064 -0.321071 153 0 76
0.378849 -0.031924 0.491843 255 0 0
0.380215 -0.795957 0.436263 0 127 127
-0.241420 -0.137772 0.221786 255 0 0
0.313585 0.391159 -0.360283 153 0 76
0.096987 0.704332 -0.389736 76 153 0
-0.046299 -0.073259 -0.261302 255 0 0
0.303412 0.236208 -0.309333 127 0 127
-0.309637 -0.644029 -0.335453 153 0 76
-0.302417 0.034617 -0.259725 0 127 127
0.302087 -0.097877 -0.259725 127 0 127
0.295490 -0.137772 -0.237942 255 0 0
0.261895 0.539961 -0.371853 76 153 0
0.156610 0.606197 -0.361648 76 153 0
-0.168634 0.559237 -0.349244 76 153 0
0.349802 -0.486884 0.456765 0 127 127
-0.184486 0.024985 -0.293173 76 153 0
-0.039852 -0.137772 0.094094 255 0 0
-0.313041 -0.031924 0.315942 255 0 0
0.041019 0.655242 -0.375140 76 153 0
-0.191796 -0.137772 0.219510 255 0 0
-0.243298 -0.031924 0.367063 255 0 0
0.387615 -0.106733 0.311369 255 0 0
-0.127635 0.462666 -0.326908 76 153 0
0.157333 -0.031924 0.027651 255 0 0
-0.133067 0.748249 -0.431482 76 153 0
-0.062526 0.081764 -0.270561 76 153 0
0.295070 -0.137772 0.218208 255 0 0
-0.345308 -0.031924 0.470552 255 0 0
0.367740 -0.675018 0.456721 0 127 127
-0.116143 -0.031924 -0.201376 255 0 0
-0.309704 -0.035629 -0.279303 0 127 127
-0.339381 -0.031924 0.414799 255 0 0
0.065352 -0.031924 0.464266 255 0 0
-0.177812 -0.137772 0.398301 255 0 0
0.187692 -0.031924 0.119427 255 0 0
-0.207464 0.296538 -0.322917 76 153 0
0.364514 -0.052939 0.045703 255 0 0
0.171864 0.342856 -0.330542 76 153 0
0.256688 -0.137772 -0.157376 255 0 0
0.371074 -0.032943 0.176608 255 0 0
-0.146601 0.300855 -0.323576 76 153 0
0.300793 -0.604076 -0.348763 76 153 0
-0.098265 -0.137772 0.085037 255 0 0
0.388554 -0.058704 0.322165 255 0 0
-0.185213 0.182617 -0.307259 76 153 0
-0.245844 -0.137772 0.246870 255 0 0
-0.360757 -0.567792 0.456871 76 0 153
0.223979 0.494490 -0.333813 76 153 0
0.292931 0.392459 -0.348039 153 0 76
0.034716 -0.031924 0.475058 255 0 0
0.020859 -0.031924 0.380961 255 0 0
0.252410 -0.034548 -0.290155 76 153 0
-0.368679 -0.044976 0.154142 255 0 0
-0.145788 0.622907 -0.366120 76 153 0
-0.213248 0.773178 -0.411801 76 153 0
0.342060 -0.137772 0.519551 255 0 0
-0.319423 -0.137772 -0.058722 255 0 0
0.016672 -0.137772 0.501207 255 0 0
-0.047661 0.392177 -0.360308 153 0 76
0.061124 -0.137772 0.145310 255 0 0
-0.035592 0.176465 -0.279827 76 153 0
-0.340767 -0.031924 0.084775 255 0 0
-0.164960 -0.031924 0.035060 255 0 0
-0.066460 -0.137772 0.528802 255 0 0
-0.062772 -0.117446 -0.261427 76 153 0
-0.317656 -0.111768 0.550200 255 0 0
-0.292894 -0.242399 -0.273094 153 0 76
0.031538 0.565708 -0.350813 76 153 0
0.288939 0.316888 -0.310715 127 0 127
-0.214896 0.622541 -0.393415 76 153 0
0.097609 0.130128 -0.301679 76 153 0
0.182400 -0.031924 -0.090716 255 0 0
-0.297118 0.169519 -0.291557 0 127 127
0.155185 0.029946 -0.293515 76 153 0
-0.311226 0.098971 -0.260313 0 127 127
-0.297482 0.234673 -0.288839 0 127 127
0.202051 -0.031924 -0.064580 255 0 0
0.242548 -0.137772 0.318683 255 0 0
-0.150302 -0.144602 -0.261053 76 153 0
-0.190768 -0.156137 -0.232617 76 0 153
0.155661 -0.031924 0.473118 255 0 0
0.354389 -0.137772 0.395127 255 0 0
-0.314470 -0.137772 -0.139034 255 0 0
-0.223877 -0.099339 -0.261302 255 0 0
0.381732 -0.092390 0.243715 255 0 0
0.072571 -0.137772 0.286188 255 0 0
-0.259426 -0.137772 -0.017097 255 0 0
-0.206821 0.083062 -0.270651 76 153 0
-0.142783 -0.137772 0.381210 255 0 0
0.336393 -0.153749 -0.087008 153 0 76
-0.340128 -0.043226 -0.174200 255 0 0
-0.241117 -0.039470 -0.289951 76 153 0
0.095719 -0.155593 -0.273936 76 153 0
-0.308567 -0.745843 -0.351133 153 0 76
-0.369706 -0.031924 0.451679 255 0 0
-0.162789 -0.058197 -0.289178 76 153 0
-0.135340 0.597389 -0.386684 76 153 0
0.120881 -0.004507 -0.291396 76 153 0
-0.100722 -0.031924 0.303059 255 0 0
0.176569 -0.096351 -0.261717 76 153 0
-0.169684 0.577468 -0.381353 76 153 0
0.301470 -0.156591 -0.178981 153 0 76
-0.227841 -0.031924 0.232449 255 0 0
-0.153670 0.002212 -0.291673 76 153 0
0.213185 0.226119 -0.286009 76 153 0
0.174854 -0.031924 0.196392 255 0 0
0.047173 -0.031924 0.066655 255 0 0
0.386733 -0.137772 0.489584 255 0 0
-0.280068 0.122097 -0.277778 0 127 127
0.147765 -0.137772 -0.190663 255 0 0
0.239983 0.599833 -0.359945 76 153 0
0.405181 -0.055605 0.521367 255 0 0
0.020740 -0.031924 0.506236 255 0 0
-0.233735 0.021150 -0.292909 76 153 0
0.174372 0.197122 -0.309065 76 153 0
0.052909 -0.139962 -0.287582 76 153 0
0.052926 -0.031924 0.156513 255 0 0
0.221126 -0.097179 0.550200 255 0 0
0.038806 -0.031924 -0.153419 255 0 0
-0.126593 -0.137772 -0.148108 255 0 0
-0.243740 -0.031924 0.333509 255 0 0
-0.158086 0.388082 -0.311830 76 153 0
0.394631 -0.105144 0.392050 255 0 0
-0.066482 0.562177 -0.377261 76 153 0
-0.298755 -0.284246 -0.279531 153 0 76
-0.032323 -0.137772 0.278690 255 0 0
-0.281006 0.389043 -0.332672 0 127 127
0.236698 0.393701 -0.312846 76 153 0
-0.045032 -0.031924 0.176737 255 0 0
-0.249122 -0.137772 0.087809 255 0 0
0.237195 -0.031924 0.355803 255 0 0
-0.037647 0.377541 -0.309923 76 153 0
0.004378 0.775066 -0.412420 76 153 0
0.256352 -0.137772 -0.196119 255 0 0
-0.255829 0.201902 -0.282994 76 153 0
0.086977 0.528416 -0.369101 76 153 0
-0.342271 -0.369703 0.454281 76 0 153
0.124234 0.092934 -0.298085 76 153 0
-0.079091 -0.156327 0.431926 204 51 127
-0.369426 -0.722615 0.456001 76 0 153
-0.039463 0.785474 -0.415829 76 153 0
0.139191 -0.031924 0.228554 255 0 0
-0.230131 -0.137772 -0.093214 255 0 0
-0.308441 -0.031924 0.199145 255 0 0
-0.071587 -0.137772 -0.144828 255 0 0
-0.153484 -0.031924 0.459618 255 0 0
-0.171801 -0.116909 0.550200 255 0 0
0.110211 -0.093404 0.550200 255 0 0
-0.115074 -0.155612 -0.275317 76 153 0
0.300378 -0.309898 -0.303501 76 153 0
0.239299 0.209471 -0.310602 76 153 0
-0.164443 -0.031924 0.271924 255 0 0
-0.297655 -0.156166 -0.105096 0 0 255
-0.141199 0.450553 -0.351407 76 153 0
-0.138341 -0.137772 0.068136 255 0 0
-0.371648 -0.076156 0.188276 255 0 0
-0.216571 0.490638 -0.332895 76 153 0
-0.058381 0.303144 -0.297158 76 153 0
0.378207 -0.264610 0.436098 0 127 127
0.066622 0.012267 -0.265772 76 153 0
0.174170 0.617658 -0.392108 76 153 0
-0.367341 -0.241746 0.455608 76 0 153
0.144227 0.245777 -0.288456 76 153 0
-0.213552 -0.019363 -0.264298 76 153 0
0.194556 -0.137772 -0.190742 255 0 0
0.364032 -0.357698 0.456706 0 127 127
-0.240920 -0.031924 0.282235 255 0 0
0.305049 -0.352433 -0.290245 76 153 0
0.345803 -0.137588 0.224432 153 0 76
-0.053370 -0.137772 0.141245 255 0 0
0.163033 0.372847 -0.369311 153 0 76
-0.137410 0.727750 -0.396922 76 153 0
-0.307051 -0.194477 -0.285616 153 0 76
-0.240496 0.487008 -0.359233 76 153 0
-0.078997 -0.094224 -0.261746 76 153 0
-0.046810 0.195836 -0.308904 76 153 0
-0.145291 -0.031924 -0.239821 255 0 0
-0.016401 0.744743 -0.430333 76 153 0
-0.033127 -0.028447 -0.263923 76 153 0
0.312567 -0.513419 -0.334783 76 153 0
0.380348 -0.156963 0.454249 0 127 127
-0.015184 -0.031924 -0.048232 255 0 0
0.135151 0.390821 -0.350763 153 0 76
-0.151607 0.041191 -0.267765 76 153 0
0.091332 -0.031924 -0.227650 255 0 0
0.221996 0.270945 -0.292246 76 153 0
-0.174525 -0.108104 -0.261302 255 0 0
0.032093 -0.031924 -0.232933 255 0 0
-0.091134 -0.137772 -0.250995 255 0 0
-0.230186 -0.132006 0.424853 204 51 127
0.099384 -0.099321 -0.261676 76 153 0
0.315552 -0.137772 -0.076456 255 0 0
0.209917 -0.137272 -0.261154 76 153 0
0.098408 0.208131 -0.310435 76 153 0
0.239711 -0.137772 -0.059202 255 0 0
-0.141376 0.650895 -0.373848 76 153 0
0.255000 -0.156573 0.414425 204 51 127
0.030021 -0.134915 -0.287651 76 153 0
0.321593 -0.270953 -0.292523 76 153 0
0.376006 -0.137772 0.370443 255 0 0
0.286890 -0.070805 -0.278585 127 0 127
-0.154207 0.197803 -0.282483 76 153 0
0.301271 0.336995 -0.336211 127 0 127
0.061985 0.614329 -0.391217 76 153 0
0.123259 -0.031924 0.130824 255 0 0
-0.227371 0.737096 -0.399983 76 153 0
-0.159011 -0.031924 0.127185 255 0 0
0.300938 0.166600 -0.270619 127 0 127
0.026226 -0.031924 0.434338 255 0 0
-0.067032 0.297890 -0.323124 76 153 0
-0.104490 -0.137772 -0.082493 255 0 0
0.091236 0.741861 -0.401544 76 153 0
0.064701 0.419641 -0.344934 76 153 0
-0.306407 -0.031924 0.049452 255 0 0
-0.278800 -0.031924 0.133224 255 0 0
-0.309778 -0.338538 -0.307657 153 0 76
-0.297710 0.242009 -0.310883 0 127 127
0.316025 -0.137772 0.473353 255 0 0
-0.028087 -0.137772 0.051878 255 0 0
-0.368303 -0.779808 0.456053 76 0 153
0.234582 -0.031924 0.017567 255 0 0
0.179120 0.683667 -0.383592 76 153 0
-0.328713 -0.031924 0.271276 255 0 0
0.195541 -0.074087 0.550200 255 0 0
0.171890 -0.114402 0.550200 255 0 0
-0.084892 -0.031924 0.405199 255 0 0
0.320597 -0.031924 -0.120901 255 0 0
0.235339 -0.031924 -0.018524 255 0 0
0.245922 -0.137772 0.342233 255 0 0
0.031767 -0.137772 -0.023643 255 0 0
-0.065068 -0.031924 -0.107530 255 0 0
0.342047 -0.070076 -0.212664 255 0 0
0.124155 -0.031924 -0.107004 255 0 0
0.007485 0.484280 -0.331434 76 153 0
-0.274703 -0.137772 0.010525 255 0 0
0.365992 -0.469201 0.456873 0 127 127
0.381284 -0.310682 0.437629 0 127 127
-0.073557 -0.031924 0.500469 255 0 0
-0.058789 -0.031924 0.322757 255 0 0
-0.352490 -0.031924 0.340057 255 0 0
0.191997 -0.031924 -0.169468 255 0 0
-0.331779 -0.137772 0.203347 255 0 0
-0.204807 0.137082 -0.302351 76 153 0
-0.254532 -0.148188 0.440454 204 51 127
0.251456 -0.129496 0.550128 255 0 0
0.299079 -0.129905 -0.279529 127 0 127
0.116260 0.372843 -0.360184 153 0 76
-0.019725 -0.031924 0.079346 255 0 0
0.067483 -0.137772 0.514570 255 0 0
0.296155 -0.575559 -0.324364 76 153 0
0.188102 -0.137590 -0.240413 76 0 153
0.275391 -0.133859 0.409017 204 51 127
-0.191539 0.315703 -0.299073 76 153 0
-0.387831 -0.071767 0.374387 255 0 0
0.101877 0.680630 -0.410296 76 153 0
0.238762 -0.031924 -0.095530 255 0 0
0.182566 -0.137772 0.426083 255 0 0
0.280013 -0.031924 0.374155 255 0 0
0.299114 -0.031924 -0.146210 255 0 0
0.267637 -0.117110 -0.267498 76 153 0
0.112092 -0.137772 -0.073927 255 0 0
-0.298213 -0.031924 0.462894 255 0 0
0.079880 0.101779 -0.298940 76 153 0
0.015777 -0.156205 -0.255831 76 0 153
-0.273123 -0.031924 0.015282 255 0 0
-0.180800 -0.137772 -0.074673 255 0 0
-0.204549 0.342820 -0.330535 76 153 0
-0.075776 -0.031924 0.170473 255 0 0
-0.269238 -0.137772 -0.157829 255 0 0
0.308287 -0.577105 -0.344603 76 153 0
0.179991 -0.137772 0.052594 255 0 0
0.200819 -0.031924 0.462667 255 0 0
-0.111051 -0.031924 0.253579 255 0 0
-0.168584 -0.137772 0.123381 255 0 0
0.261679 -0.137772 -0.004098 255 0 0
-0.326705 -0.137587 0.057413 0 0 255
-0.060248 -0.137772 -0.190347 255 0 0
-0.045204 -0.031924 -0.157185 255 0 0
-0.054208 -0.019285 -0.264301 76 153 0
0.373058 -0.841437 0.436880 0 127 127
0.032843 0.331240 -0.301550 76 153 0
0.130920 -0.031924 0.032091 255 0 0
0.024776 0.346247 -0.331155 76 153 0
0.345908 -0.231926 0.448194 0 127 127
0.252407 -0.137772 0.382581 255 0 0
-0.180506 -0.031924 0.533470 255 0 0
-0.385555 -0.137183 0.415621 255 0 0
0.287775 -0.031924 0.411064 255 0 0
-0.102979 -0.137772 -0.217518 255 0 0
-0.291011 -0.774540 -0.354961 153 0 76
-0.140632 -0.056206 -0.261302 255 0 0
0.145465 -0.066745 -0.262341 76 153 0
-0.090414 -0.031924 -0.069198 255 0 0
-0.021750 0.246624 -0.288562 76 153 0
0.040358 0.298178 -0.323168 76 153 0
-0.206092 0.415097 -0.343982 76 153 0
-0.013013 0.413564 -0.343661 76 153 0
-0.280710 -0.031924 0.374572 255 0 0
-0.100359 0.444900 -0.323187 76 153 0
0.005143 0.391989 -0.362220 153 0 76
0.289311 -0.799016 -0.358988 76 153 0
-0.037643 -0.031924 -0.013619 255 0 0
-0.358515 -0.137772 0.397518 255 0 0
-0.098047 -0.035288 -0.259317 255 0 0
0.010725 0.639638 -0.398108 76 153 0
0.209833 0.518983 -0.366853 76 153 0
0.248469 -0.031924 0.244099 255 0 0
0.210350 0.772302 -0.439360 76 153 0
0.246496 0.768560 -0.438135 76 153 0
-0.048222 0.538738 -0.371561 76 153 0
0.284113 0.008405 -0.270266 127 0 127
-0.028557 0.010171 -0.292152 76 153 0
-0.028032 -0.031924 0.438159 255 0 0
0.029994 -0.137772 0.172840 255 0 0
0.311340 -0.118096 0.550200 255 0 0
-0.262373 0.628109 -0.377673 76 153 0
-0.199947 -0.031924 0.098314 255 0 0
0.095754 0.191236 -0.281666 76 153 0
0.355101 -0.346667 0.437778 0 127 127
0.161724 0.314375 -0.298871 76 153 0
0.216483 0.031168 -0.267074 76 153 0
-0.117639 -0.137772 0.238108 255 0 0
0.143771 0.333617 -0.328871 76 153 0
-0.191615 -0.137772 -0.113178 255 0 0
0.256526 -0.031924 0.056038 255 0 0
0.198455 -0.137772 0.323184 255 0 0
0.040611 0.789049 -0.444622 76 153 0
0.320748 0.223019 -0.289992 127 0 127
-0.323339 -0.137772 0.285530 255 0 0
-0.093880 0.346871 -0.304377 76 153 0
-0.155067 0.464234 -0.327236 76 153 0
-0.119988 0.565677 -0.378197 76 153 0
-0.371950 -0.065164 0.549916 255 0 0
0.047481 -0.148064 -0.261005 76 153 0
0.137970 0.777092 -0.413083 76 153 0
0.323873 -0.137772 0.250727 255 0 0
-0.021945 0.572420 -0.352609 76 153 0
-0.020079 -0.120608 0.550200 255 0 0
0.195099 0.118014 -0.273923 76 153 0
0.007145 -0.138767 0.440190 204 51 127
-0.040318 -0.031924 -0.108971 255 0 0
-0.167788 -0.062810 -0.262503 76 153 0
0.303665 -0.419524 -0.300666 76 153 0
0.179887 0.786209 -0.443915 76 153 0
-0.279474 -0.060114 -0.275350 0 127 127
0.152394 0.414443 -0.343845 76 153 0
0.323251 -0.031924 0.234912 255 0 0
-0.318276 -0.031924 -0.216868 255 0 0
0.184771 0.185749 -0.280983 76 153 0
-0.022055 -0.031924 0.391215 255 0 0
-0.115868 -0.000690 -0.291553 76 153 0
0.185393 0.555687 -0.375601 76 153 0
0.181772 0.442448 -0.349710 76 153 0
0.230939 -0.031924 -0.229684 255 0 0
-0.220141 -0.137772 -0.007197 255 0 0
0.261584 -0.137772 0.248092 255 0 0
-0.311607 0.391056 -0.335666 0 127 127
0.278421 -0.156468 -0.232708 76 0 153
-0.365347 -0.412412 0.436407 76 0 153
0.300979 -0.539654 -0.318825 76 153 0
0.361475 -0.507710 0.457265 0 127 127
-0.161963 -0.031924 -0.165570 255 0 0
0.233004 -0.137772 -0.153322 255 0 0
-0.102764 -0.078130 0.550200 255 0 0
0.373477 -0.533770 0.456191 0 127 127
0.000760 -0.031924 -0.180147 255 0 0
0.345982 -0.085178 -0.167405 255 0 0
0.048954 -0.031924 0.337241 255 0 0
-0.112126 0.486241 -0.359051 76 153 0
0.368334 -0.125455 0.089630 255 0 0
0.065635 -0.137772 0.439055 255 0 0
0.124160 -0.031924 -0.244725 255 0 0
0.197225 -0.031924 0.158934 255 0 0
-0.151430 -0.035798 -0.290103 76 153 0
0.363300 -0.754573 0.456772 0 127 127
0.164403 -0.031924 0.426187 255 0 0
-0.062506 -0.137772 0.095607 255 0 0
0.319702 -0.137772 -0.131400 255 0 0
-0.301040 -0.543405 -0.319978 153 0 76
0.090661 -0.132746 0.412394 204 51 127
0.146378 0.372483 -0.309009 76 153 0
0.184951 0.657880 -0.403531 76 153 0
0.130085 0.016421 -0.292583 76 153 0
-0.199609 0.370936 -0.308729 76 153 0
-0.112761 -0.031924 -0.066242 255 0 0
0.114546 -0.137772 -0.171707 255 0 0
0.334689 -0.031924 0.130328 255 0 0
-0.062417 0.747582 -0.403418 76 153 0
-0.172043 -0.137772 0.260792 255 0 0
-0.356511 -0.137772 0.218723 255 0 0
0.099047 0.437854 -0.321712 76 153 0
0.363114 -0.031924 0.397269 255 0 0
-0.137258 0.145836 -0.276612 76 153 0
-0.183248 -0.137772 -0.003933 255 0 0
0.242409 -0.137772 -0.229671 255 0 0
-0.228869 -0.137772 0.026048 255 0 0
0.119308 -0.137772 0.028672 255 0 0
0.062431 -0.137772 0.008008 255 0 0
-0.130782 0.085483 -0.297365 76 153 0
-0.271158 -0.031924 0.224882 255 0 0
0.289126 0.210184 -0.302120 127 0 127
0.119303 0.342176 -0.303528 76 153 0
0.303383 -0.031924 0.529959 255 0 0
-0.334844 -0.154646 -0.021406 0 0 255
0.084028 0.161683 -0.304729 76 153 0
-0.022131 0.273941 -0.319470 76 153 0
0.119904 -0.134932 -0.261186 76 153 0
-0.025376 0.433817 -0.347902 76 153 0
-0.135016 0.057455 -0.295411 76 153 0
-0.057044 -0.137772 0.053111 255 0 0
0.320722 -0.679618 -0.343667 76 153 0
-0.257899 -0.137772 0.466791 255 0 0
-0.361956 -0.290921 0.436702 76 0 153
0.313973 -0.794756 -0.377552 76 153 0
-0.303336 -0.031924 0.336195 255 0 0
0.264898 0.424960 -0.319011 76 153 0
0.349743 -0.774332 0.456722 0 127 127
-0.335970 -0.137652 0.320033 0 0 255
0.155425 -0.132436 0.427247 204 51 127
0.312977 -0.154769 0.051834 153 0 76
-0.089547 -0.137772 0.176452 255 0 0
0.210497 -0.031924 0.285786 255 0 0
0.159009 -0.137772 0.044567 255 0 0
0.356793 -0.092991 -0.043081 255 0 0
0.092840 0.556750 -0.375854 76 153 0
0.353539 -0.107343 -0.080503 255 0 0
0.270853 -0.048641 0.550200 255 0 0
-0.150549 -0.031924 -0.095709 255 0 0
-0.344531 -0.156587 0.404117 0 0 255
0.238420 0.357743 -0.333234 76 153 0
0.026106 0.386469 -0.348262 153 0 76
-0.288009 -0.137772 0.449140 255 0 0
0.074994 0.689473 -0.385318 76 153 0
-0.229474 0.437235 -0.348618 76 153 0
0.310132 -0.638800 -0.354068 76 153 0
-0.157795 -0.031924 0.373074 255 0 0
0.118742 -0.146413 0.403451 204 51 127
-0.262373 -0.021359 -0.269697 76 153 0
0.068954 -0.156593 -0.241604 76 0 153
0.312947 0.368366 -0.324244 127 0 127
0.193290 0.000524 -0.291604 76 153 0
0.179037 -0.137772 0.080040 255 0 0
-0.077585 0.444559 -0.323116 76 153 0
-0.262373 0.371694 -0.328575 76 153 0
0.319815 0.319911 -0.314099 127 0 127
-0.308637 -0.137772 -0.200930 255 0 0
-0.262373 0.083988 -0.292317 76 153 0
0.239144 0.624393 -0.366518 76 153 0
-0.139636 -0.152601 0.439420 204 51 127
0.138845 -0.036436 -0.290077 76 153 0
0.113992 0.607052 -0.361877 76 153 0
-0.214060 0.166328 -0.278592 76 153 0
-0.122276 0.373732 -0.309235 76 153 0
-0.120739 0.701031 -0.416362 76 153 0
0.005095 -0.031924 0.115259 255 0 0
-0.055803 -0.137772 -0.058739 255 0 0
-0.014497 -0.059874 -0.289108 76 153 0
-0.364909 -0.161546 0.433761 76 0 153
0.025008 -0.137772 0.291876 255 0 0
0.356746 -0.067065 -0.043631 255 0 0
-0.049931 -0.137772 0.005959 255 0 0
0.104460 -0.031924 -0.140902 255 0 0
-0.124833 0.233511 -0.313595 76 153 0
-0.099528 0.391915 -0.365640 153 0 76
-0.179008 -0.031924 -0.014039 255 0 0
-0.363907 -0.227739 0.436532 76 0 153
-0.188484 0.101084 -0.298873 76 153 0
0.221630 0.542530 -0.345262 76 153 0
-0.239438 0.408955 -0.315659 76 153 0
0.372709 -0.121990 0.550200 255 0 0
-0.283124 -0.466003 -0.327183 153 0 76
-0.017745 0.787644 -0.444386 76 153 0
-0.285167 -0.679751 -0.360340 153 0 76
0.256713 0.159263 -0.277910 76 153 0
-0.031685 -0.050640 -0.263006 76 153 0
0.239555 -0.031924 -0.153459 255 0 0
-0.333475 -0.156593 0.139421 0 0 255
0.174781 -0.031924 0.405456 255 0 0
-0.326010 -0.156593 0.018063 0 0 255
-0.148411 -0.137772 -0.073207 255 0 0
0.074425 -0.137772 -0.148623 255 0 0
0.401207 -0.033371 0.520373 255 0 0
-0.125074 -0.135816 0.406164 204 51 127
-0.119920 0.531062 -0.369732 76 153 0
-0.025497 0.366098 -0.334745 76 153 0
0.386869 -0.032015 0.396672 255 0 0
0.170351 -0.154131 -0.226957 76 0 153
-0.061919 0.328651 -0.327973 76 153 0
0.261367 0.604532 -0.388596 76 153 0
0.311373 0.265918 -0.296814 127 0 127
-0.031224 -0.137772 -0.123227 255 0 0
-0.366920 -0.031924 0.486062 255 0 0
0.128779 0.064730 -0.269387 76 153 0
0.342123 -0.031924 0.479833 255 0 0
-0.079313 -0.137772 -0.102661 255 0 0
-0.350216 -0.035187 -0.034384 255 0 0
0.247277 0.309324 -0.298100 76 153 0
0.302220 -0.724605 -0.367305 76 153 0
0.194505 0.634873 -0.369322 76 153 0
-0.250300 -0.031924 0.041932 255 0 0
0.146556 0.274385 -0.319538 76 153 0
0.196886 0.107215 -0.299465 76 153 0
-0.302692 0.067346 -0.279529 0 127 127
-0.350100 -0.031924 0.395428 255 0 0
-0.285772 0.252882 -0.293437 0 127 127
0.200012 -0.104337 -0.261302 255 0 0
-0.005310 0.256425 -0.316798 76 153 0
-0.231909 -0.155527 -0.269153 76 153 0
0.024088 0.707972 -0.390819 76 153 0
0.209610 0.192798 -0.308526 76 153 0
0.119590 -0.031924 0.304760 255 0 0
-0.356650 -0.156396 0.278688 0 0 255
-0.342018 -0.053189 -0.152456 255 0 0
-0.394678 -0.040301 0.453800 255 0 0
-0.329905 -0.143882 -0.096282 0 0 255
-0.191730 0.756296 -0.434117 76 153 0
0.110715 0.757935 -0.434654 76 153 0
0.150125 -0.031924 -0.031947 255 0 0
0.330628 -0.137772 -0.193710 255 0 0
0.256234 0.477700 -0.357092 76 153 0
0.330287 -0.156592 0.155899 153 0 76
-0.173899 -0.137772 0.169496 255 0 0
-0.280244 -0.813927 -0.379922 153 0 76
0.285398 -0.155875 0.434530 204 51 127
-0.165602 -0.031924 0.214700 255 0 0
-0.093737 0.148275 -0.303433 76 153 0
-0.256374 0.612377 -0.363302 76 153 0
-0.009280 -0.137772 0.027153 255 0 0
-0.292772 -0.132498 -0.260478 255 0 0
0.048903 0.146408 -0.303253 76 153 0
0.294817 -0.137772 0.397870 255 0 0
-0.153627 -0.137772 0.191252 255 0 0
0.016418 -0.137772 0.070954 255 0 0
-0.358288 -0.602440 0.437021 76 0 153
0.153133 -0.137772 0.169598 255 0 0
-0.113420 -0.031924 0.196436 255 0 0
0.068250 0.646704 -0.372602 76 153 0
-0.066359 0.522222 -0.340422 76 153 0
-0.165801 0.353122 -0.332398 76 153 0
-0.107099 -0.156480 -0.252003 76 0 153
-0.373406 -0.031924 0.530809 255 0 0
0.204781 0.324842 -0.300468 76 153 0
-0.160686 0.590326 -0.357401 76 153 0
0.376165 -0.031988 0.541633 255 0 0
0.358679 -0.156593 0.356224 153 0 76
0.209336 0.438956 -0.321942 76 153 0
0.005668 0.327614 -0.327785 76 153 0
0.386213 -0.128224 0.295244 255 0 0
-0.086139 -0.031924 0.257993 255 0 0
-0.072996 -0.031924 0.525195 255 0 0
0.112209 0.714320 -0.420368 76 153 0
-0.049417 0.266653 -0.318359 76 153 0
0.218193 -0.031924 0.221691 255 0 0
0.287763 0.292795 -0.323978 127 0 127
0.386821 -0.036930 0.313027 255 0 0
-0.262373 0.464566 -0.330079 76 153 0
0.159161 -0.137772 0.191502 255 0 0
0.259429 -0.137772 0.211331 255 0 0
0.220709 -0.060766 -0.261302 255 0 0
0.161727 -0.135309 0.406436 204 51 127
0.282769 -0.137772 -0.142978 255 0 0
-0.299567 -0.572329 -0.343871 153 0 76
0.350593 -0.068793 -0.114383 255 0 0
0.317512 -0.436296 -0.303403 76 153 0
0.223413 -0.031924 0.194605 255 0 0
0.085959 -0.031924 0.444552 255 0 0
0.023664 -0.031924 -0.083946 255 0 0
-0.000904 0.414511 -0.316823 76 153 0
-0.018754 0.399199 -0.313840 76 153 0
0.366831 -0.137772 0.194957 255 0 0
0.301059 0.359172 -0.342101 127 0 127
0.054147 -0.137594 -0.242076 76 0 153
0.362749 -0.117716 0.025407 255 0 0
0.254155 0.791321 -0.437686 76 153 0
0.124121 0.170179 -0.305710 76 153 0
0.343709 -0.137772 0.027104 255 0 0
-0.334539 -0.086296 0.550200 255 0 0
-0.303082 -0.031924 -0.175237 255 0 0
-0.045273 -0.031924 0.220028 255 0 0
-0.339451 -0.133086 -0.169657 255 0 0
-0.363459 -0.661749 0.436570 76 0 153
-0.369268 -0.484465 0.456091 76 0 153
0.221129 0.203601 -0.283205 76 153 0
-0.062923 -0.031374 -0.290286 76 153 0
0.008497 0.125487 -0.301231 76 153 0
-0.081251 -0.137772 -0.168774 255 0 0
0.359013 -0.543791 0.437411 0 127 127
0.023037 -0.031924 -0.007773 255 0 0
-0.084105 -0.137772 0.486429 255 0 0
0.293433 0.269309 -0.318119 127 0 127
0.053981 -0.137772 0.474848 255 0 0
-0.011504 0.037405 -0.294029 76 153 0
-0.167131 0.728917 -0.425149 76 153 0
0.226025 -0.090922 -0.261302 255 0 0
0.175735 0.385291 -0.338216 76 153 0
0.334011 -0.137772 -0.037309 255 0 0
0.080665 -0.031924 0.020677 255 0 0
-0.198252 0.384145 -0.348155 153 0 76
0.362095 -0.045250 0.017885 255 0 0
0.047650 -0.137772 0.350162 255 0 0
0.182498 -0.089227 -0.288279 76 153 0
0.025430 0.035401 -0.267366 76 153 0
-0.082091 -0.134220 0.437855 204 51 127
0.340885 -0.104371 -0.226024 255 0 0
-0.353091 -0.107266 -0.025121 255 0 0
0.091661 0.573297 -0.352844 76 153 0
-0.234734 0.452250 -0.324726 76 153 0
0.134608 -0.027218 -0.263973 76 153 0
-0.294379 -0.031924 0.300137 255 0 0
0.107925 -0.122389 -0.287823 76 153 0
-0.208838 -0.137772 0.074509 255 0 0
0.368961 -0.031924 0.470283 255 0 0
-0.311000 -0.031924 -0.001889 255 0 0
-0.057375 -0.133362 0.549019 255 0 0
-0.211750 -0.031924 0.135466 255 0 0
-0.398884 -0.088277 0.501492 255 0 0
-0.299969 -0.492673 -0.331623 153 0 76
-0.131206 0.258598 -0.317130 76 153 0
0.377479 -0.253167 0.455409 0 127 127
-0.214370 -0.137772 -0.208471 255 0 0
0.113231 0.640494 -0.398362 76 153 0
-0.010438 0.734517 -0.399138 76 153 0
0.290552 0.095103 -0.260025 127 0 127
0.303903 -0.024454 -0.279529 127 0 127
0.056349 0.192264 -0.308460 76 153 0
0.114503 0.578065 -0.354120 76 153 0
0.118896 -0.137772 0.259462 255 0 0
0.144773 0.272845 -0.292535 76 153 0
0.338169 -0.127022 -0.237163 255 0 0
0.186435 -0.137772 0.477301 255 0 0
0.300869 -0.598068 -0.327960 76 153 0
-0.019573 -0.031924 0.362453 255 0 0
0.240958 0.692400 -0.386189 76 153 0
-0.044320 0.614563 -0.363887 76 153 0
0.071765 -0.067189 0.550200 255 0 0
-0.258634 0.665817 -0.378285 76 153 0
0.314812 -0.156578 -0.008952 153 0 76
-0.069724 0.161717 -0.278147 76 153 0
0.160629 -0.031924 0.299872 255 0 0
0.065887 0.609852 -0.362626 76 153 0
-0.182773 0.733844 -0.398918 76 153 0
-0.004550 -0.021162 -0.264224 76 153 0
-0.348633 -0.046604 -0.076394 255 0 0
-0.030594 -0.156548 0.411410 204 51 127
-0.062453 -0.031924 0.299151 255 0 0
0.051343 -0.087649 0.550200 255 0 0
-0.006794 -0.137772 -0.176794 255 0 0
-0.312052 -0.031924 0.085531 255 0 0
-0.146725 0.077911 -0.270296 76 153 0
0.338027 -0.156593 0.086444 153 0 76
0.224156 -0.137772 0.334022 255 0 0
-0.350813 -0.764164 0.457405 76 0 153
0.251567 -0.031924 0.265911 255 0 0
0.203389 0.512781 -0.338172 76 153 0
0.347492 -0.067247 0.550200 255 0 0
-0.145454 -0.031924 0.234934 255 0 0
-0.162534 0.392189 -0.352240 153 0 76
0.209852 -0.031924 0.427745 255 0 0
-0.028249 0.602154 -0.387959 76 153 0
-0.078181 -0.137772 -0.055255 255 0 0
0.033899 -0.031924 -0.050102 255 0 0
0.371232 -0.137772 0.229438 255 0 0
-0.364695 -0.156014 0.360597 0 0 255
-0.262373 -0.108754 -0.264357 76 153 0
0.086431 0.581758 -0.382501 76 153 0
-0.132108 -0.137772 0.009943 255 0 0
-0.112894 -0.137772 -0.104464 255 0 0
-0.340179 -0.156593 0.186676 0 0 255
0.290485 -0.507156 -0.313987 76 153 0
-0.098276 0.705457 -0.390071 76 153 0
-0.302025 -0.137772 0.488739 255 0 0
0.099721 -0.031924 0.336636 255 0 0
-0.280038 -0.553809 -0.338966 153 0 76
-0.143115 -0.137772 -0.009667 255 0 0
0.079809 -0.031924 -0.148161 255 0 0
-0.314413 -0.611031 -0.331871 153 0 76
-0.202660 0.245570 -0.315142 76 153 0
-0.288008 -0.073299 0.550200 255 0 0
0.063355 -0.031924 0.366501 255 0 0
-0.366070 -0.611183 0.456393 76 0 153
0.064394 0.377705 -0.348449 153 0 76
-0.119886 -0.031924 -0.132803 255 0 0
-0.026000 -0.031924 0.039683 255 0 0
-0.229441 -0.031924 0.486307 255 0 0
-0.253494 0.008861 -0.292062 76 153 0
0.019704 -0.154976 -0.228923 76 0 153
-0.307071 -0.137772 -0.039839 255 0 0
-0.311163 -0.311994 -0.302886 153 0 76
0.305458 -0.156545 -0.108286 153 0 76
-0.150801 0.375108 -0.379738 153 0 76
-0.164618 0.246254 -0.288515 76 153 0
0.265683 0.519433 -0.366961 76 153 0
-0.086092 0.094208 -0.298208 76 153 0
-0.239615 -0.150428 0.403609 204 51 127
-0.296487 -0.828477 -0.383284 153 0 76
0.349801 -0.804723 0.456765 0 127 127
-0.262373 0.221568 -0.293566 76 153 0
-0.373481 -0.086530 0.209363 255 0 0
0.301624 -0.398919 -0.317197 76 153 0
-0.240169 -0.137772 -0.118682 255 0 0
0.267637 0.102767 -0.277367 76 153 0
-0.092902 0.563465 -0.377605 76 153 0
0.259507 -0.067793 -0.262297 76 153 0
0.025949 -0.137772 -0.070326 255 0 0
0.094289 -0.137772 0.081734 255 0 0
0.245311 0.121087 -0.274220 76 153 0
0.294992 -0.031924 0.443304 255 0 0
-0.307591 -0.248599 -0.293919 153 0 76
-0.018814 -0.137772 0.420730 255 0 0
-0.178184 0.378840 -0.337050 76 153 0
0.056288 -0.137772 -0.024497 255 0 0
0.391714 -0.100761 0.358504 255 0 0
0.000676 -0.137772 0.393189 255 0 0
-0.355905 -0.750665 0.437228 76 0 153
-0.117484 -0.031924 0.124479 255 0 0
-0.134904 -0.031924 0.327617 255 0 0
-0.118907 0.141786 -0.302806 76 153 0
0.129639 -0.031924 -0.038643 255 0 0
-0.343329 -0.156593 0.216830 0 0 255
0.052581 -0.031924 -0.244722 255 0 0
-0.117311 0.734542 -0.426992 76 153 0
-0.314109 -0.239645 -0.273803 153 0 76
-0.245411 0.053854 -0.268638 76 153 0
0.352354 -0.137772 0.337813 255 0 0
0.075791 -0.153476 0.405132 204 51 127
0.324469 -0.031924 -0.043761 255 0 0
-0.250532 -0.069834 -0.261302 255 0 0
-0.063962 0.372843 -0.358514 153 0 76
0.069859 -0.137772 0.184541 255 0 0
-0.201102 -0.031924 -0.135782 255 0 0
-0.352446 -0.659369 0.457593 76 0 153
0.229795 -0.137772 0.282283 255 0 0
0.305432 0.202289 -0.280150 127 0 127
-0.354052 -0.348086 0.457300 76 0 153
0.187890 -0.137772 0.122109 255 0 0
0.144481 -0.031924 -0.100147 255 0 0
-0.111389 -0.137772 0.275686 255 0 0
-0.128670 -0.088871 0.550200 255 0 0
-0.160141 -0.156248 -0.233260 76 0 153
-0.225733 0.387207 -0.338563 76 153 0
-0.044350 -0.137772 0.508634 255 0 0
0.293405 -0.137772 0.031624 255 0 0
-0.158807 0.596814 -0.386530 76 153 0
0.048835 -0.031924 0.512760 255 0 0
0.104730 -0.137772 -0.138830 255 0 0
0.325430 -0.031924 -0.086983 255 0 0
0.099951 -0.031924 -0.188623 255 0 0
0.020884 -0.031924 0.288563 255 0 0
-0.110110 -0.031924 0.395021 255 0 0
0.312965 -0.137772 0.448861 255 0 0
-0.163865 0.663446 -0.377580 76 153 0
-0.084094 -0.023597 -0.290607 76 153 0
0.271818 0.390189 -0.349067 153 0 76
0.301974 -0.215103 -0.288921 76 153 0
-0.057803 -0.077859 -0.288436 76 153 0
-0.226007 -0.137636 -0.239096 76 0 153
0.298484 -0.265111 -0.296575 76 153 0
0.166836 -0.031924 0.279015 255 0 0
-0.022051 0.683972 -0.383683 76 153 0
-0.383826 -0.052270 0.328330 255 0 0
0.114086 -0.137772 0.181962 255 0 0
0.034790 0.784838 -0.415620 76 153 0
-0.261284 -0.137772 -0.199605 255 0 0
0.128599 0.419947 -0.317961 76 153 0
0.369897 -0.105776 0.107606 255 0 0
0.321143 -0.031924 0.093350 255 0 0
-0.256024 -0.031924 0.384019 255 0 0
0.143595 -0.031924 -0.167701 255 0 0
0.013697 0.154797 -0.277478 76 153 0
0.165653 -0.137772 0.099807 255 0 0
-0.064240 0.205442 -0.283434 76 153 0
-0.294914 -0.792091 -0.377645 153 0 76
-0.323360 -0.137772 0.497506 255 0 0
-0.248642 -0.137772 0.197136 255 0 0
-0.142794 0.554727 -0.375372 76 153 0
-0.334816 -0.099948 -0.231180 255 0 0
-0.262373 0.778978 -0.434190 76 153 0
0.302392 -0.830825 -0.364005 76 153 0
-0.293079 -0.443994 -0.304310 153 0 76
-0.041550 -0.137772 -0.096122 255 0 0
-0.036770 0.070967 -0.296342 76 153 0
-0.361270 -0.685405 0.456659 76 0 153
0.317157 -0.137772 -0.169876 255 0 0
-0.386702 -0.041343 0.361401 255 0 0
-0.301170 -0.137772 0.157344 255 0 0
-0.293250 -0.137772 0.030565 255 0 0
-0.059982 -0.031924 0.457195 255 0 0
-0.312642 0.389675 -0.370511 153 0 76
0.292001 -0.031924 0.200902 255 0 0
0.034549 0.092163 -0.298011 76 153 0
0.288295 -0.762240 -0.372778 76 153 0
-0.298383 -0.031924 -0.226707 255 0 0
0.073234 0.415768 -0.317086 76 153 0
-0.078657 0.675907 -0.408891 76 153 0
0.287120 -0.137772 0.325055 255 0 0
0.029230 -0.137772 -0.240073 255 0 0
0.142698 -0.090807 -0.261302 255 0 0
-0.359144 -0.473774 0.436947 76 0 153
-0.093352 -0.031924 -0.186117 255 0 0
-0.197068 0.002262 -0.265191 76 153 0
-0.361983 -0.097770 0.077131 255 0 0
0.182339 0.327418 -0.300861 76 153 0
0.365316 -0.385300 0.456595 0 127 127
-0.150429 -0.137772 -0.101728 255 0 0
-0.203111 -0.031924 0.342133 255 0 0
0.178646 -0.031924 0.345834 255 0 0
0.145441 0.509759 -0.337452 76 153 0
0.342642 -0.098737 -0.205819 255 0 0
0.285457 -0.137772 0.530138 255 0 0
-0.209050 -0.137772 0.248794 255 0 0
-0.176470 -0.137772 0.095987 255 0 0
-0.208956 0.349855 -0.304917 76 153 0
0.007909 0.374795 -0.336318 76 153 0
0.150814 -0.156454 -0.252724 76 0 153
0.199365 -0.031924 0.015327 255 0 0
0.092845 0.767492 -0.409939 76 153 0
-0.150026 0.279959 -0.293621 76 153 0
-0.202872 0.710598 -0.419206 76 153 0
-0.333221 -0.149135 0.362655 0 0 255
-0.202868 0.541706 -0.345066 76 153 0
-0.079861 -0.045602 -0.261302 255 0 0
0.046745 -0.137772 0.099648 255 0 0
-0.275826 -0.154501 0.405694 204 51 127
0.196433 -0.031924 0.085410 255 0 0
-0.101490 -0.134010 0.548522 255 0 0
0.034142 -0.137772 -0.133229 255 0 0
-0.332962 -0.137772 -0.041245 255 0 0
-0.358072 -0.204598 0.437040 76 0 153
0.096801 0.392029 -0.312544 76 153 0
-0.292470 0.214380 -0.283488 0 127 127
0.034475 0.137283 -0.275786 76 153 0
-0.353936 -0.033080 0.036221 255 0 0
-0.229901 0.647625 -0.372876 76 153 0
-0.189002 -0.137772 -0.155817 255 0 0
-0.186677 -0.134277 -0.287660 76 153 0
0.087949 0.134830 -0.275548 76 153 0
-0.373805 -0.325555 0.454634 76 0 153
-0.308157 -0.397607 -0.297038 153 0 76
-0.220546 -0.041800 -0.263371 76 153 0
0.375901 -0.056687 0.176649 255 0 0
-0.310230 -0.036056 -0.257536 255 0 0
-0.250604 0.578515 -0.381633 76 153 0
0.137690 0.167984 -0.278771 76 153 0
0.212198 0.076656 -0.270209 76 153 0
0.093521 -0.137772 0.121352 255 0 0
0.019127 -0.019768 -0.264281 76 153 0
-0.011351 -0.137772 -0.037996 255 0 0
0.277024 -0.031924 -0.035803 255 0 0
0.322879 -0.156431 0.109101 153 0 76
-0.092722 0.594033 -0.358393 76 153 0
0.376665 -0.589092 0.455747 0 127 127
-0.080654 -0.031924 -0.143864 255 0 0
0.371162 -0.080988 0.122152 255 0 0
0.243506 -0.137772 0.081580 255 0 0
0.267576 -0.137772 0.159947 255 0 0
0.074696 0.664550 -0.405515 76 153 0
-0.239694 0.043716 -0.294464 76 153 0
0.155027 -0.137772 -0.083003 255 0 0
0.323456 -0.137772 0.124796 255 0 0
-0.265666 -0.031924 0.430226 255 0 0
0.299394 -0.031924 0.248364 255 0 0
0.306444 0.121819 -0.279987 127 0 127
-0.055912 -0.031924 0.431827 255 0 0
0.055165 -0.088784 -0.288286 76 153 0
-0.353605 -0.217717 0.457364 76 0 153
-0.299839 -0.516151 -0.315725 153 0 76
0.164515 0.469506 -0.355376 76 153 0
0.325092 -0.156530 -0.160290 153 0 76
-0.098421 -0.088013 -0.288296 76 153 0
-0.011753 0.663170 -0.377498 76 153 0
-0.321831 -0.137772 0.524608 255 0 0
0.112531 0.319607 -0.299669 76 153 0
0.011499 -0.031924 0.533777 255 0 0
0.273936 -0.031924 -0.012448 255 0 0
-0.301835 -0.031924 0.387089 255 0 0
-0.050543 0.100145 -0.298782 76 153 0
-0.279255 0.142817 -0.276078 0 127 127
-0.032823 -0.119093 -0.261404 76 153 0
0.403124 -0.110996 0.489719 255 0 0
0.129047 0.644745 -0.372019 76 153 0
0.087500 -0.010894 -0.291132 76 153 0
-0.366475 -0.079457 0.128795 255 0 0
-0.380783 -0.074501 0.293332 255 0 0
0.244826 0.419674 -0.317904 76 153 0
0.357147 -0.031924 0.211022 255 0 0
0.165755 0.742051 -0.401606 76 153 0
0.312213 0.028299 -0.279397 127 0 127
-0.136106 0.637414 -0.397446 76 153 0
0.261823 0.269499 -0.292025 76 153 0
0.027114 0.078965 -0.270368 76 153 0
-0.005824 -0.092739 -0.261767 76 153 0
-0.296412 -0.137772 0.004679 255 0 0
-0.219445 0.622344 -0.365969 76 153 0
0.210859 0.373567 -0.336096 76 153 0
-0.031888 -0.137772 0.332989 255 0 0
0.042330 -0.031924 -0.110165 255 0 0
-0.012555 -0.137772 -0.137246 255 0 0
0.229290 -0.137772 0.136281 255 0 0
-0.207372 -0.137772 -0.089706 255 0 0
0.175657 -0.137772 -0.018921 255 0 0
-0.222082 0.362198 -0.334040 76 153 0
-0.103449 0.631919 -0.395925 76 153 0
0.267637 0.073657 -0.283472 76 153 0
-0.325009 -0.153201 -0.156885 0 0 255
0.349902 -0.031924 0.373557 255 0 0
0.196766 -0.031924 0.185527 255 0 0
0.034030 -0.031924 0.232013 255 0 0
0.339292 -0.031924 -0.029288 255 0 0
-0.262373 0.182261 -0.291127 76 153 0
-0.360481 -0.137772 0.333437 255 0 0
0.254327 -0.031924 -0.081868 255 0 0
-0.354942 -0.137772 0.538025 255 0 0
0.327355 -0.031924 0.540100 255 0 0
0.088515 -0.112910 -0.287954 76 153 0
0.191048 0.597522 -0.359327 76 153 0
0.143206 0.137885 -0.302429 76 153 0
-0.337872 -0.055431 -0.200141 255 0 0
0.072321 0.507624 -0.336943 76 153 0
-0.340192 -0.137772 0.387727 255 0 0
-0.185144 0.149538 -0.303555 76 153 0
-0.344872 -0.031924 0.319526 255 0 0
-0.121736 -0.031924 -0.153403 255 0 0
0.242245 -0.031924 0.070999 255 0 0
0.396462 -0.132201 0.421201 255 0 0
-0.154412 -0.137772 0.037941 255 0 0
-0.091787 -0.031924 0.461229 255 0 0
-0.059091 0.015195 -0.265974 76 153 0
0.027795 0.629331 -0.367839 76 153 0
0.377927 -0.066552 0.199952 255 0 0
0.312774 -0.138747 -0.050211 153 0 76
0.228826 -0.031924 0.295653 255 0 0
-0.312560 -0.146764 0.123937 0 0 255
-0.199958 0.608774 -0.389731 76 153 0
-0.042189 -0.031924 0.070592 255 0 0
-0.184966 -0.045818 0.550200 255 0 0
-0.165104 -0.137772 0.240916 255 0 0
-0.054767 0.240116 -0.314417 76 153 0
0.115177 -0.137772 0.378678 255 0 0
0.132801 0.297055 -0.322996 76 153 0
0.233777 -0.031924 -0.047382 255 0 0
-0.260579 0.721005 -0.394712 76 153 0
0.236323 -0.120074 -0.287855 76 153 0
0.301074 -0.362898 -0.311660 76 153 0
0.367994 -0.035534 0.106463 255 0 0
0.049782 0.539968 -0.371855 76 153 0
-0.241884 0.675790 -0.408857 76 153 0
0.360008 -0.309998 0.437321 0 127 127
-0.357551 -0.134926 0.053658 255 0 0
0.056129 0.169470 -0.278956 76 153 0
-0.209954 -0.031924 -0.108224 255 0 0
0.164552 -0.031924 0.049599 255 0 0
-0.349451 -0.119172 -0.066986 255 0 0
-0.211533 -0.156592 -0.238426 76 0 153
-0.291070 -0.701681 -0.343803 153 0 76
-0.094107 -0.031924 0.501747 255 0 0
0.383750 -0.106922 0.266915 255 0 0
-0.110064 0.771876 -0.411375 76 153 0
-0.011777 -0.031924 0.192268 255 0 0
0.051687 -0.038895 0.549957 255 0 0
0.252977 0.432147 -0.347553 76 153 0
-0.195435 -0.031924 -0.001682 255 0 0
0.307568 -0.475020 -0.308950 76 153 0
0.019169 -0.137772 0.331071 255 0 0
-0.094395 -0.112843 -0.287955 76 153 0
0.301895 0.003979 -0.279529 127 0 127
-0.336661 -0.137772 0.158717 255 0 0
0.117718 -0.137772 0.154911 255 0 0
-0.045772 0.420488 -0.318075 76 153 0
-0.241293 0.610271 -0.390131 76 153 0
0.314098 0.132887 -0.261909 127 0 127
0.016537 -0.031924 0.464523 255 0 0
-0.358257 -0.031924 0.257759 255 0 0
0.082069 -0.031924 0.164694 255 0 0
-0.121696 -0.137772 0.147249 255 0 0
-0.185665 -0.072863 -0.262088 76 153 0
0.397362 -0.093655 0.423454 255 0 0
-0.199016 0.438665 -0.321881 76 153 0
0.236109 0.174198 -0.279545 76 153 0
-0.190040 -0.137772 -0.038013 255 0 0
-0.341246 -0.164758 0.451776 76 0 153
0.345771 -0.129067 -0.169666 255 0 0
0.087370 -0.137594 -0.243942 76 0 153
-0.300130 -0.031924 0.489141 255 0 0
-0.309151 -0.301650 -0.282321 153 0 76
-0.227711 -0.031924 0.540283 255 0 0
0.192308 0.342024 -0.330391 76 153 0
-0.322781 -0.137772 0.004079 255 0 0
0.120572 -0.137772 0.442514 255 0 0
-0.307968 0.309627 -0.308524 0 127 127
-0.014428 0.323746 -0.327086 76 153 0
-0.039709 -0.137772 0.366493 255 0 0
-0.262373 0.265138 -0.293176 76 153 0
0.370138 -0.156584 0.405227 153 0 76
-0.107259 0.017648 -0.266143 76 153 0
-0.075135 -0.031924 0.144300 255 0 0
-0.194691 0.372895 -0.371605 153 0 76
0.082317 -0.111298 -0.261511 76 153 0
0.046451 -0.156593 0.423664 204 51 127
0.182735 -0.031924 -0.032534 255 0 0
0.303023 0.112153 -0.259725 127 0 127
0.071742 -0.137772 0.164177 255 0 0
0.161477 0.021324 -0.266396 76 153 0
0.012757 -0.137772 0.476441 255 0 0
0.004130 0.506746 -0.336734 76 153 0
-0.302780 -0.137772 0.329863 255 0 0
0.292794 -0.204108 -0.267940 76 153 0
-0.340170 -0.033736 -0.132285 255 0 0
0.086731 -0.042313 -0.263350 76 153 0
0.267637 0.505570 -0.342054 76 153 0
-0.296499 0.181203 -0.274853 0 127 127
-0.198783 -0.031924 0.118663 255 0 0
-0.033230 0.498641 -0.334802 76 153 0
0.228165 -0.156419 -0.234250 76 0 153
-0.315568 -0.154889 0.095429 0 0 255
-0.262373 -0.084089 -0.285916 76 153 0
-0.338012 -0.137772 0.088102 255 0 0
0.291014 -0.705378 -0.364206 76 153 0
0.012984 -0.137772 0.252889 255 0 0
0.316085 -0.178027 -0.263802 76 153 0
-0.318098 -0.031924 0.228969 255 0 0
-0.276529 -0.132046 0.412520 204 51 127
0.015386 0.292346 -0.322278 76 153 0
0.302222 -0.044436 -0.261302 255 0 0
-0.157407 0.177224 -0.279921 76 153 0
-0.355919 -0.587550 0.457291 76 0 153
