ply
format ascii 1.0
element vertex 1279
property float x
property float y
property float z
property uchar red
property uchar green
property uchar blue
end_header
0.151514 -0.137772 0.357952 255 0 0
0.381581 -0.632557 0.440819 0 127 127
0.300925 -0.137772 -0.137215 255 0 0
-0.030907 -0.137772 -0.086600 255 0 0
-0.275779 -0.149434 0.404553 204 51 127
0.219834 -0.137772 -0.027789 255 0 0
0.341102 -0.155414 0.177603 153 0 76
0.248998 -0.117437 -0.287891 76 153 0
-0.019482 -0.027924 -0.263944 76 153 0
0.037544 0.136280 -0.275688 76 153 0
-0.088583 -0.031924 0.006841 255 0 0
0.013650 -0.137772 0.320215 255 0 0
0.374667 -0.095737 0.550092 255 0 0
0.211938 -0.031924 0.006883 255 0 0
-0.280015 -0.827736 -0.379825 153 0 76
-0.087853 -0.137772 -0.045162 255 0 0
0.317160 -0.031924 0.158001 255 0 0
-0.117664 0.636760 -0.369827 76 153 0
0.119803 -0.137772 0.037483 255 0 0
0.074160 0.390992 -0.384393 153 0 76
-0.123559 -0.133185 0.433933 204 51 127
0.362423 -0.276426 0.438292 0 127 127
-0.302399 -0.031924 0.092843 255 0 0
0.137076 -0.137772 0.213096 255 0 0
-0.356635 -0.137772 0.254348 255 0 0
0.067885 0.644931 -0.399681 76 153 0
0.113241 0.555925 -0.348455 76 153 0
0.285799 -0.469227 -0.326827 76 153 0
-0.280015 -0.779411 -0.357591 153 0 76
0.129732 -0.137772 -0.239659 255 0 0
-0.056602 -0.031924 0.344237 255 0 0
0.150419 0.629091 -0.367775 76 153 0
0.099030 -0.002502 -0.291479 76 153 0
-0.167695 -0.045192 0.550200 255 0 0
0.285278 -0.324066 -0.287642 76 153 0
-0.117526 -0.066347 0.550200 255 0 0
-0.241258 0.391468 -0.354644 153 0 76
0.098635 0.707719 -0.390743 76 153 0
0.082013 0.284864 -0.294369 76 153 0
0.221486 0.525417 -0.368387 76 153 0
0.055992 -0.155414 0.418465 204 51 127
-0.255141 -0.031924 -0.091725 255 0 0
-0.280015 -0.744520 -0.365736 153 0 76
-0.109409 0.068980 -0.269680 76 153 0
0.195046 0.071453 -0.269851 76 153 0
-0.059597 -0.137772 -0.100457 255 0 0
0.152506 0.241570 -0.287932 76 153 0
0.066488 0.420477 -0.345108 76 153 0
-0.322900 -0.137772 0.476549 255 0 0
-0.311448 0.374022 -0.362494 0 127 127
-0.086809 0.381913 -0.310714 76 153 0
-0.315297 -0.527460 -0.320395 153 0 76
0.055415 -0.137772 0.066179 255 0 0
-0.312785 -0.031924 0.378403 255 0 0
0.372698 -0.118926 0.550200 255 0 0
0.093131 -0.030227 -0.263849 76 153 0
0.154904 -0.137772 0.456192 255 0 0
0.215601 0.387898 -0.338688 76 153 0
-0.307135 -0.094735 0.550200 255 0 0
0.069380 0.660943 -0.376835 76 153 0
0.272258 -0.031924 0.381632 255 0 0
-0.018533 -0.151804 0.439703 204 51 127
-0.219170 -0.137772 0.051390 255 0 0
-0.159370 -0.148961 0.439703 204 51 127
0.067899 -0.031924 0.088438 255 0 0
0.124032 -0.137772 -0.035771 255 0 0
-0.280015 -0.338123 -0.302933 153 0 76
-0.129831 -0.031924 -0.145706 255 0 0
0.294463 -0.137772 0.524615 255 0 0
0.301997 -0.369562 -0.311495 76 153 0
0.259377 -0.031924 0.055968 255 0 0
-0.325714 -0.137772 0.335606 255 0 0
-0.102559 -0.137772 0.215067 255 0 0
0.285278 0.160389 -0.284970 127 0 127
0.267637 0.618862 -0.378937 76 153 0
0.097582 -0.031924 0.451102 255 0 0
-0.031618 0.568472 -0.378946 76 153 0
0.371206 -0.044643 0.122670 255 0 0
-0.046211 0.662301 -0.377239 76 153 0
0.012869 0.256952 -0.316879 76 153 0
-0.218059 -0.118522 -0.287876 76 153 0
0.308476 -0.137772 0.281271 255 0 0
-0.194131 -0.064030 -0.288937 76 153 0
0.069590 0.391468 -0.354544 153 0 76
-0.311043 -0.014250 -0.278350 0 127 127
0.243445 -0.137772 -0.175785 255 0 0
-0.148335 -0.031924 -0.003381 255 0 0
-0.302714 -0.137772 0.254483 255 0 0
-0.197466 -0.104370 -0.261607 255 0 0
-0.023041 -0.031924 0.442088 255 0 0
0.095346 0.619339 -0.365165 76 153 0
-0.079389 0.776802 -0.412988 76 153 0
0.019741 -0.031924 0.123371 255 0 0
0.144813 -0.031924 -0.127071 255 0 0
0.110251 -0.031924 0.168289 255 0 0
0.198553 0.711215 -0.391783 76 153 0
0.139534 0.039551 -0.267652 76 153 0
0.404756 -0.044503 0.508488 255 0 0
-0.312193 -0.456715 -0.324902 153 0 76
-0.303351 -0.078938 -0.278350 0 127 127
-0.339802 -0.055842 0.550200 255 0 0
-0.177066 -0.137772 0.066328 255 0 0
-0.010559 0.225255 -0.312567 76 153 0
-0.019699 -0.155414 -0.229070 76 0 153
0.341351 -0.135234 0.547558 255 0 0
0.241088 -0.031924 -0.116044 255 0 0
-0.242684 -0.031924 0.115665 255 0 0
0.075566 -0.137772 0.307941 255 0 0
0.214957 0.391468 -0.376976 153 0 76
-0.250482 0.531246 -0.342573 76 153 0
0.158556 0.140100 -0.302643 76 153 0
-0.376939 -0.295212 0.447969 76 0 153
0.100488 -0.031924 -0.156113 255 0 0
-0.262373 0.576718 -0.366427 76 153 0
0.306298 -0.540157 -0.337739 76 153 0
-0.020835 -0.139833 -0.261118 76 0 153
0.336643 -0.137772 0.271877 255 0 0
0.005985 0.341387 -0.303385 76 153 0
0.047436 -0.031924 -0.236893 255 0 0
-0.223032 0.312916 -0.325416 76 153 0
0.225976 0.573835 -0.380381 76 153 0
0.058423 -0.031029 -0.263816 76 153 0
-0.024527 -0.031924 0.525825 255 0 0
-0.177520 -0.031924 0.419082 255 0 0
-0.313624 -0.142938 0.125600 0 0 255
0.310856 -0.111007 0.550200 255 0 0
0.151906 -0.031924 0.278789 255 0 0
0.093302 0.789055 -0.444602 76 153 0
-0.168579 -0.137259 0.544175 255 0 0
-0.029972 0.606040 -0.361606 76 153 0
0.227305 0.156934 -0.277684 76 153 0
0.319006 -0.137772 -0.133275 255 0 0
-0.336886 -0.155414 0.225041 0 0 255
-0.033669 -0.137772 0.012336 255 0 0
-0.126752 0.790219 -0.441049 76 153 0
0.182682 0.424890 -0.346033 76 153 0
-0.341475 -0.414045 0.445895 76 0 153
-0.241279 0.201709 -0.309636 76 153 0
0.031727 0.231311 -0.313321 76 153 0
-0.049198 0.337722 -0.329614 76 153 0
0.267637 0.555489 -0.356460 76 153 0
0.356415 -0.115676 -0.047427 255 0 0
0.149707 -0.155502 -0.267336 76 153 0
0.318201 -0.123556 -0.260904 255 0 0
0.049081 -0.034823 0.547859 255 0 0
-0.359091 -0.097946 0.043874 255 0 0
0.254203 0.173319 -0.306101 76 153 0
0.057634 0.464377 -0.327266 76 153 0
0.041547 0.302387 -0.297042 76 153 0
-0.258103 -0.137772 0.330806 255 0 0
-0.179720 -0.031924 -0.123076 255 0 0
0.183961 0.013424 -0.265851 76 153 0
-0.133042 0.102006 -0.298962 76 153 0
-0.328309 -0.031924 -0.149861 255 0 0
0.166229 -0.077445 -0.261302 255 0 0
0.079894 -0.031924 0.153165 255 0 0
0.196847 0.401820 -0.314314 76 153 0
-0.242590 -0.154682 -0.287379 76 153 0
0.213488 0.618777 -0.392408 76 153 0
0.083213 0.590366 -0.357412 76 153 0
-0.218006 -0.031924 0.435859 255 0 0
-0.222029 -0.031924 -0.022304 255 0 0
0.197703 -0.031924 0.013072 255 0 0
-0.388289 -0.122379 0.379655 255 0 0
-0.336629 -0.155414 0.353253 0 0 255
-0.287555 -0.031924 0.013160 255 0 0
-0.079272 -0.137772 0.239743 255 0 0
0.049988 0.374022 -0.352040 153 0 76
-0.315297 -0.600987 -0.345229 153 0 76
0.297485 0.252056 -0.312349 127 0 127
0.309790 -0.516946 -0.316524 76 153 0
-0.139997 -0.137772 -0.167399 255 0 0
0.244349 0.391468 -0.382786 153 0 76
0.187073 0.770357 -0.410877 76 153 0
-0.102975 0.661472 -0.404599 76 153 0
0.297827 -0.402321 -0.298890 76 153 0
0.191682 -0.031924 0.148821 255 0 0
-0.019902 0.247317 -0.315409 76 153 0
-0.219152 -0.130109 -0.261149 255 0 0
0.300599 -0.202611 -0.285811 76 153 0
-0.078685 0.391468 -0.365177 153 0 76
0.184552 -0.031924 0.237187 255 0 0
-0.207017 -0.031482 -0.290281 76 153 0
-0.057122 -0.137772 -0.240298 255 0 0
0.157142 -0.150566 -0.287435 76 153 0
-0.283078 -0.057982 0.550200 255 0 0
0.320561 -0.252038 -0.289666 76 153 0
-0.040818 0.027801 -0.293367 76 153 0
0.086959 -0.031924 -0.169983 255 0 0
0.152529 0.693874 -0.414234 76 153 0
0.363669 -0.080313 0.035988 255 0 0
0.093667 -0.113057 -0.261487 76 153 0
0.184747 -0.031924 -0.059460 255 0 0
0.285208 0.391468 -0.349494 153 0 76
-0.081950 0.437977 -0.321737 76 153 0
-0.024841 0.199666 -0.282715 76 153 0
0.059093 -0.031924 0.201227 255 0 0
-0.194465 -0.054808 -0.262833 255 0 0
-0.297597 -0.031924 0.237292 255 0 0
0.394177 -0.065957 0.386831 255 0 0
0.325151 -0.031924 0.263902 255 0 0
-0.338569 -0.055432 -0.192124 255 0 0
-0.376864 -0.185993 0.447116 76 0 153
-0.299739 -0.431537 -0.303385 153 0 76
0.369868 -0.137772 0.358307 153 0 76
0.068535 0.490194 -0.332789 76 153 0
0.382591 -0.396550 0.454246 0 127 127
0.012672 -0.137772 -0.103403 255 0 0
-0.286431 -0.137772 0.124208 255 0 0
-0.305681 -0.031924 -0.057576 255 0 0
0.239687 -0.137772 0.390407 255 0 0
-0.045326 -0.031924 0.233781 255 0 0
-0.300707 -0.031924 0.495569 255 0 0
0.088006 -0.137772 -0.049734 255 0 0
-0.314290 0.114990 -0.278350 0 127 127
-0.241300 -0.031924 0.096772 255 0 0
0.370491 -0.033067 0.166430 255 0 0
-0.131348 0.149401 -0.276956 76 153 0
0.399475 -0.119505 0.447761 255 0 0
0.031600 -0.031924 0.035191 255 0 0
-0.170923 -0.137772 -0.229845 76 0 153
0.097561 0.581840 -0.355130 76 153 0
0.034612 -0.137772 -0.036498 255 0 0
0.315704 -0.137772 0.066976 255 0 0
-0.288833 -0.137772 -0.003302 255 0 0
-0.035756 0.379907 -0.310351 76 153 0
0.267637 0.710488 -0.401195 76 153 0
-0.297277 -0.031924 0.176465 255 0 0
0.137544 0.374022 -0.357096 153 0 76
-0.043045 -0.056031 0.550200 255 0 0
-0.018942 -0.137772 0.202789 255 0 0
-0.313184 -0.031924 0.264405 255 0 0
0.080384 0.529946 -0.369466 76 153 0
-0.226134 0.374022 -0.352432 153 0 76
0.140340 -0.084805 -0.288340 76 153 0
-0.307413 -0.031924 -0.146995 255 0 0
0.185943 -0.031924 -0.223566 255 0 0
0.373918 -0.126064 0.153853 255 0 0
-0.137889 -0.031924 -0.101686 255 0 0
-0.021905 -0.137772 0.108900 255 0 0
0.293922 0.161828 -0.270232 127 0 127
0.133937 -0.137772 -0.126814 255 0 0
-0.382156 -0.052611 0.309124 255 0 0
-0.105169 -0.137772 0.127998 255 0 0
0.299072 -0.137772 0.187234 255 0 0
0.058630 0.577459 -0.353957 76 153 0
-0.016915 0.398446 -0.313704 76 153 0
-0.140621 -0.031924 0.209820 255 0 0
-0.096282 0.388276 -0.384393 153 0 76
0.127250 0.452775 -0.351872 76 153 0
0.210196 -0.137772 0.318401 255 0 0
0.054404 0.391425 -0.384393 153 0 76
-0.085514 -0.137772 0.038923 255 0 0
0.021772 -0.031924 0.383814 255 0 0
0.233860 0.364537 -0.334463 76 153 0
-0.006387 -0.031924 0.342628 255 0 0
0.317483 -0.779611 -0.374576 76 153 0
0.234451 -0.137772 -0.226781 255 0 0
0.307987 -0.031924 0.478627 255 0 0
0.267637 -0.033970 -0.287844 76 153 0
0.320561 -0.225321 -0.274888 76 153 0
-0.262373 0.648299 -0.384952 76 153 0
-0.233869 0.616172 -0.391711 76 153 0
0.376239 -0.081380 0.180538 255 0 0
-0.293424 -0.031924 -0.029670 255 0 0
-0.024447 0.057640 -0.268899 76 153 0
0.142992 0.119542 -0.300656 76 153 0
-0.000554 0.068403 -0.269641 76 153 0
-0.331303 -0.031924 0.302399 255 0 0
0.058565 -0.155414 0.438995 204 51 127
-0.076021 -0.031924 0.126531 255 0 0
0.070748 0.318123 -0.299442 76 153 0
-0.141884 0.335624 -0.329234 76 153 0
-0.129674 0.584874 -0.383335 76 153 0
0.120449 -0.047173 -0.289633 76 153 0
-0.366528 -0.119023 0.129401 255 0 0
-0.354950 -0.038716 -0.000668 255 0 0
0.276553 -0.031924 -0.139397 255 0 0
-0.312811 -0.137772 -0.220461 0 0 255
-0.338525 -0.031924 0.046077 255 0 0
0.050101 0.325868 -0.300624 76 153 0
-0.085276 0.131598 -0.275236 76 153 0
-0.221226 -0.137772 -0.036580 255 0 0
-0.074747 -0.135075 0.404553 255 0 0
0.215658 0.739520 -0.428622 76 153 0
-0.246742 0.792235 -0.434895 76 153 0
0.019133 0.660916 -0.376827 76 153 0
0.031012 -0.031924 0.210737 255 0 0
0.104653 -0.137772 -0.062277 255 0 0
0.320561 0.265658 -0.302970 127 0 127
0.076541 0.561362 -0.349750 76 153 0
-0.303019 0.020238 -0.278350 0 127 127
0.349908 -0.341939 0.439380 0 127 127
0.307333 -0.279371 -0.279974 76 153 0
0.182810 0.358189 -0.306424 76 153 0
0.364334 -0.111904 0.043639 255 0 0
0.387571 -0.130172 0.312720 255 0 0
0.320561 0.374386 -0.374173 153 0 76
0.034043 0.595507 -0.386180 76 153 0
0.038909 -0.031924 0.065061 255 0 0
0.357004 -0.066054 -0.040659 255 0 0
0.304072 -0.584903 -0.344622 76 153 0
-0.399565 -0.071434 0.509322 255 0 0
-0.202814 0.182317 -0.307221 76 153 0
-0.342391 -0.604250 0.456420 76 0 153
-0.209402 -0.137772 -0.121028 255 0 0
0.005273 0.770844 -0.438882 76 153 0
0.228630 0.629954 -0.368006 76 153 0
-0.228070 -0.137772 -0.093648 255 0 0
0.247382 -0.031924 -0.185050 255 0 0
-0.134344 -0.155414 0.423585 204 51 127
-0.056982 0.205420 -0.310098 76 153 0
-0.162318 -0.137772 0.117171 255 0 0
0.054110 0.271300 -0.292299 76 153 0
-0.141219 0.384117 -0.349111 153 0 76
0.146839 0.005761 -0.265335 76 153 0
0.180152 -0.031924 -0.166504 255 0 0
-0.373152 -0.103059 0.205578 255 0 0
0.113139 0.697420 -0.415288 76 153 0
0.105109 -0.137772 0.068710 255 0 0
-0.215148 -0.137772 -0.216884 255 0 0
-0.039884 -0.031924 0.271603 255 0 0
-0.139611 -0.129582 0.550117 255 0 0
0.023826 -0.031924 0.242381 255 0 0
-0.380872 -0.137772 0.512219 255 0 0
0.224541 0.483261 -0.358340 76 153 0
0.143262 -0.137772 0.481611 255 0 0
-0.359234 -0.174840 0.438112 76 0 153
-0.006159 0.411679 -0.316230 76 153 0
-0.093912 0.239249 -0.287643 76 153 0
0.097565 -0.031924 -0.069465 255 0 0
-0.315297 -0.263942 -0.292994 153 0 76
0.049096 -0.137772 0.259162 255 0 0
-0.134960 0.245352 -0.288403 76 153 0
0.027682 -0.137772 0.291890 255 0 0
-0.030382 0.475548 -0.329605 76 153 0
0.201641 -0.099564 -0.261673 255 0 0
0.352165 -0.155414 0.283025 153 0 76
0.362434 -0.137772 0.260406 153 0 76
-0.376205 -0.649510 0.439533 76 0 153
-0.028596 0.454048 -0.325103 76 153 0
0.122889 -0.031924 0.353310 255 0 0
0.208881 0.250018 -0.315821 76 153 0
-0.134854 -0.034956 0.547961 255 0 0
-0.225923 -0.137772 0.082370 255 0 0
0.267637 0.447768 -0.339931 76 153 0
0.298796 -0.031924 -0.018502 255 0 0
0.100992 -0.067904 0.550200 255 0 0
-0.174346 0.666537 -0.378498 76 153 0
0.191610 -0.137772 0.055338 255 0 0
0.107084 -0.031924 0.137794 255 0 0
0.285278 0.103923 -0.277611 127 0 127
0.064325 -0.100497 -0.261660 76 153 0
0.060898 0.684572 -0.411468 76 153 0
-0.220423 0.167026 -0.305318 76 153 0
-0.363299 -0.137772 0.447590 255 0 0
0.264487 -0.137772 0.350746 255 0 0
-0.005654 -0.137772 0.265155 255 0 0
0.287207 0.374022 -0.373424 153 0 76
0.104304 -0.125500 -0.287780 76 153 0
0.137646 -0.137772 -0.095353 255 0 0
-0.095506 -0.137772 0.515946 255 0 0
0.382902 -0.045417 0.257167 255 0 0
0.039159 0.650713 -0.373793 76 153 0
-0.090020 -0.140015 -0.287580 76 153 0
0.067255 -0.031924 0.251710 255 0 0
0.053805 -0.155414 -0.251735 76 0 153
-0.321562 -0.155414 0.030151 0 0 255
-0.050044 0.070804 -0.269806 76 153 0
0.167668 0.391468 -0.349451 153 0 76
-0.381243 -0.131488 0.303299 255 0 0
0.169212 -0.031924 0.057575 255 0 0
-0.032999 0.485632 -0.358905 76 153 0
0.322784 -0.031924 -0.180964 255 0 0
-0.287400 -0.031924 0.410544 255 0 0
-0.358304 -0.031924 0.198671 255 0 0
-0.342731 -0.155414 0.084092 0 0 255
0.179354 -0.031924 0.449967 255 0 0
0.177264 0.353381 -0.332446 76 153 0
-0.289738 -0.553685 -0.339820 153 0 76
-0.082546 0.789088 -0.444502 76 153 0
-0.070935 0.616350 -0.364365 76 153 0
0.212961 -0.025973 -0.264024 76 153 0
-0.225922 0.295260 -0.295955 76 153 0
0.335987 -0.137772 0.238859 153 0 76
-0.345693 -0.754602 0.456997 76 0 153
-0.068204 -0.079145 -0.288418 76 153 0
-0.229396 0.089403 -0.297744 76 153 0
-0.314197 -0.755169 -0.370816 153 0 76
-0.332784 -0.031924 0.321898 255 0 0
0.114900 -0.031924 -0.061563 255 0 0
0.125190 0.526456 -0.341431 76 153 0
0.255975 0.397714 -0.340463 76 153 0
0.146370 0.721598 -0.422752 76 153 0
0.186566 -0.031924 -0.090943 255 0 0
-0.358744 -0.554051 0.438154 76 0 153
0.081527 -0.031924 0.355558 255 0 0
0.374982 -0.060776 0.166083 255 0 0
-0.079651 0.584795 -0.383314 76 153 0
-0.079265 -0.031924 0.110804 255 0 0
-0.168339 0.242584 -0.288058 76 153 0
-0.315297 0.089752 -0.264933 0 127 127
0.333505 -0.137772 0.203221 255 0 0
-0.237645 0.770578 -0.438795 76 153 0
0.346100 -0.072442 0.550200 255 0 0
-0.140340 -0.031924 -0.159712 255 0 0
0.050765 0.356127 -0.332942 76 153 0
-0.212646 -0.137772 0.317729 255 0 0
-0.283522 -0.286265 -0.281035 153 0 76
-0.008644 0.029119 -0.266933 76 153 0
0.014352 -0.031924 0.103434 255 0 0
-0.097729 0.521056 -0.340144 76 153 0
0.168925 0.700512 -0.388600 76 153 0
-0.163278 0.763266 -0.408555 76 153 0
-0.022319 0.376440 -0.349111 153 0 76
-0.262373 0.452126 -0.331479 76 153 0
0.338886 -0.069426 -0.235450 255 0 0
-0.079066 -0.031924 -0.153589 255 0 0
0.218589 -0.031924 0.102413 255 0 0
-0.240194 -0.137772 -0.239847 76 0 153
0.254752 -0.090879 -0.288257 76 153 0
-0.287902 -0.031924 0.037334 255 0 0
-0.384040 -0.116352 0.330783 255 0 0
0.071533 -0.031924 0.178659 255 0 0
0.269550 -0.031924 0.348867 255 0 0
-0.308398 -0.205704 -0.286287 153 0 76
-0.067121 0.602604 -0.388080 76 153 0
0.222546 -0.147517 -0.225754 76 0 153
0.315398 -0.137772 0.214560 255 0 0
0.133462 -0.031924 0.326273 255 0 0
-0.173333 0.348721 -0.331603 76 153 0
0.357295 -0.085957 -0.037310 255 0 0
0.179357 0.763966 -0.436629 76 153 0
-0.315297 -0.789996 -0.361155 153 0 76
0.267637 0.686533 -0.395083 76 153 0
-0.246895 0.440377 -0.322240 76 153 0
0.201961 -0.137772 -0.094911 255 0 0
0.300570 -0.017611 -0.260904 127 0 127
-0.005429 0.704671 -0.417444 76 153 0
-0.096531 -0.031924 -0.137052 255 0 0
0.380910 -0.031924 0.492653 255 0 0
-0.091986 -0.135681 0.546975 255 0 0
-0.358182 -0.137772 0.319533 255 0 0
-0.318914 -0.140015 0.186434 255 0 0
0.200971 -0.137772 0.166188 255 0 0
0.039051 0.706380 -0.390345 76 153 0
0.166824 0.513566 -0.338359 76 153 0
0.195530 -0.031924 0.427539 255 0 0
0.199873 -0.137772 0.519062 255 0 0
-0.325385 -0.137772 0.102728 255 0 0
0.056506 0.376708 -0.309773 76 153 0
0.163248 0.305356 -0.324263 76 153 0
0.402789 -0.057657 0.485871 255 0 0
-0.047551 -0.037039 -0.290052 76 153 0
0.320305 -0.799505 -0.359995 76 153 0
0.199952 0.383527 -0.384393 153 0 76
-0.365947 -0.054044 0.122719 255 0 0
0.162991 0.368638 -0.335205 76 153 0
0.255088 -0.031924 0.408128 255 0 0
0.040544 -0.137772 0.390554 255 0 0
-0.206918 0.294103 -0.322546 76 153 0
0.227461 -0.052647 -0.262922 76 153 0
0.353066 -0.033332 -0.038436 255 0 0
-0.154614 0.376371 -0.349111 153 0 76
-0.255729 -0.031924 0.197975 255 0 0
0.120367 -0.127523 -0.287752 76 153 0
-0.199064 -0.155414 -0.249959 76 0 153
-0.344714 -0.547475 0.457082 76 0 153
0.051940 -0.137772 0.047433 255 0 0
-0.182025 -0.031924 0.498241 255 0 0
-0.027875 0.403815 -0.341619 76 153 0
-0.328110 -0.137772 0.534103 255 0 0
-0.132095 0.043739 -0.294465 76 153 0
0.005945 0.084291 -0.297260 76 153 0
0.107789 0.204297 -0.283291 76 153 0
-0.306836 -0.155414 -0.127102 0 0 255
-0.382675 -0.088793 0.315094 255 0 0
0.378230 -0.056260 0.203437 255 0 0
-0.011849 0.346928 -0.331278 76 153 0
0.214431 -0.137772 0.334253 255 0 0
0.273311 -0.031924 -0.166506 255 0 0
0.065800 -0.137772 -0.139480 255 0 0
0.077438 -0.031924 0.208652 255 0 0
0.373867 -0.689385 0.455005 0 127 127
0.353251 -0.155414 0.243907 153 0 76
-0.032014 0.352817 -0.332343 76 153 0
0.359930 -0.192918 0.438509 0 127 127
0.240216 -0.031924 0.156960 255 0 0
-0.101791 -0.085651 0.550200 255 0 0
0.370699 -0.101703 0.116833 255 0 0
-0.113938 0.168289 -0.305475 76 153 0
-0.183775 -0.137772 0.539494 255 0 0
-0.339563 -0.137772 0.363463 0 0 255
-0.020446 -0.031924 -0.141042 255 0 0
0.260230 -0.031924 -0.025005 255 0 0
-0.153829 0.243113 -0.314790 76 153 0
0.310472 -0.772962 -0.355911 76 153 0
0.188694 0.513131 -0.365459 76 153 0
-0.346249 -0.137772 0.135493 255 0 0
0.252859 0.793161 -0.432068 76 153 0
0.136731 0.471286 -0.355749 76 153 0
0.355492 -0.126458 -0.058043 255 0 0
-0.238715 -0.137772 -0.032201 255 0 0
-0.199666 -0.143739 0.404553 204 51 127
-0.304005 -0.155414 -0.226999 76 0 153
0.115334 0.650958 -0.401473 76 153 0
-0.221161 -0.031924 0.494911 255 0 0
-0.097341 -0.137772 0.493613 255 0 0
0.034103 0.484678 -0.331517 76 153 0
-0.092157 0.374022 -0.365524 153 0 76
-0.148693 0.443114 -0.349849 76 153 0
-0.394066 -0.058262 0.536720 255 0 0
-0.224341 -0.006917 -0.291296 76 153 0
0.000661 -0.031924 0.414415 255 0 0
-0.281307 -0.137772 0.201605 255 0 0
-0.120537 -0.031924 -0.111291 255 0 0
-0.222154 0.107625 -0.299505 76 153 0
0.284897 -0.137772 0.009245 255 0 0
0.020779 0.574864 -0.380656 76 153 0
0.320561 -0.105459 -0.271463 127 0 127
-0.318866 -0.155414 -0.110382 0 0 255
0.180175 -0.137772 0.532591 255 0 0
0.234787 -0.031924 -0.219050 255 0 0
0.320561 0.045477 -0.263343 127 0 127
-0.275514 -0.033579 -0.257508 255 0 0
0.149553 -0.031924 -0.015302 255 0 0
-0.344198 -0.046837 -0.127393 255 0 0
-0.054105 0.210668 -0.284085 76 153 0
-0.315297 -0.561776 -0.332374 153 0 76
-0.017027 -0.092879 -0.288229 76 153 0
0.269392 -0.132613 -0.260430 76 153 0
-0.169753 0.462787 -0.326933 76 153 0
-0.052407 0.552636 -0.347671 76 153 0
-0.097306 0.261029 -0.290733 76 153 0
-0.032334 0.321578 -0.299970 76 153 0
-0.112975 -0.031924 0.203671 255 0 0
0.249044 -0.031924 0.485291 255 0 0
-0.173016 -0.046606 -0.261302 255 0 0
0.380907 -0.066701 0.234220 255 0 0
0.302785 -0.031924 0.234444 255 0 0
-0.055150 -0.031924 0.147831 255 0 0
-0.020127 0.676142 -0.408961 76 153 0
0.072229 -0.031924 -0.085998 255 0 0
0.382236 -0.031924 0.426602 255 0 0
0.041512 0.769927 -0.410737 76 153 0
-0.244071 0.447694 -0.350808 76 153 0
-0.214697 -0.031924 0.381403 255 0 0
0.363222 -0.419073 0.455931 0 127 127
-0.224549 -0.092638 -0.288233 76 153 0
-0.257500 -0.031924 0.499537 255 0 0
-0.201307 -0.031924 0.273365 255 0 0
0.038534 -0.090848 -0.288257 76 153 0
-0.098993 -0.137772 0.293015 255 0 0
0.287741 0.362813 -0.323828 127 0 127
-0.030528 0.519580 -0.339793 76 153 0
-0.164726 0.714505 -0.420428 76 153 0
-0.377296 -0.264977 0.452075 76 0 153
0.300594 -0.155414 -0.227274 153 0 76
-0.025117 0.442234 -0.349665 76 153 0
0.159589 -0.031924 -0.183379 255 0 0
0.082170 -0.137772 -0.081823 255 0 0
0.358139 -0.153899 0.456373 0 127 127
0.304367 -0.242090 -0.274239 76 153 0
-0.243395 0.331307 -0.328453 76 153 0
0.224060 -0.137772 0.477606 255 0 0
-0.179335 -0.118312 -0.287879 76 153 0
0.171858 -0.031924 0.528497 255 0 0
0.288137 -0.031924 0.144615 255 0 0
0.115148 -0.137772 0.400848 204 51 127
0.145934 0.058717 -0.268973 76 153 0
0.211940 0.424490 -0.318913 76 153 0
-0.215090 0.344404 -0.303931 76 153 0
-0.303817 0.391468 -0.344219 153 0 76
-0.073432 0.699712 -0.415969 76 153 0
0.269610 -0.031924 0.488119 255 0 0
0.077326 -0.031924 0.430884 255 0 0
0.231674 -0.137772 -0.099305 255 0 0
-0.068593 -0.137772 -0.208322 255 0 0
-0.136705 0.789134 -0.417028 76 153 0
0.052528 -0.137772 0.204189 255 0 0
0.066740 -0.031924 0.045231 255 0 0
0.290361 -0.031924 -0.085974 255 0 0
-0.262373 0.125928 -0.281469 76 153 0
0.342447 -0.138836 -0.009219 153 0 76
-0.329180 -0.137772 0.211101 255 0 0
0.107496 -0.031924 0.407050 255 0 0
-0.374170 -0.632371 0.436813 76 0 153
0.303453 0.195563 -0.279228 127 0 127
-0.167563 -0.031924 -0.089354 255 0 0
-0.087877 -0.031924 -0.196794 255 0 0
-0.110551 0.504845 -0.336281 76 153 0
0.300115 -0.799950 -0.377705 76 153 0
-0.122439 -0.031924 -0.250808 255 0 0
-0.035686 0.690748 -0.385697 76 153 0
0.006638 -0.020858 -0.290720 76 153 0
0.078797 0.117996 -0.300507 76 153 0
-0.138981 -0.050733 -0.289486 76 153 0
-0.357589 -0.137772 0.491948 255 0 0
-0.087454 -0.078709 0.550200 255 0 0
0.382643 -0.129723 0.255360 255 0 0
-0.179264 -0.143388 0.404553 255 0 0
-0.046192 -0.137772 -0.184020 255 0 0
0.174364 -0.137772 0.368876 255 0 0
-0.314008 -0.626253 -0.333341 153 0 76
0.027366 -0.149183 0.404553 204 51 127
-0.047545 -0.010283 -0.291157 76 153 0
-0.383815 -0.137772 0.479884 255 0 0
-0.285537 -0.137772 0.517399 255 0 0
0.226730 -0.152172 0.404553 204 51 127
0.184375 0.794261 -0.428709 76 153 0
0.121052 -0.137772 0.451124 255 0 0
-0.239321 -0.137772 -0.109899 255 0 0
0.200474 -0.031924 -0.213192 255 0 0
0.311493 -0.155414 -0.247134 153 0 76
0.283337 -0.137772 0.059602 255 0 0
0.312871 0.060568 -0.278350 127 0 127
0.187519 -0.031924 0.203212 255 0 0
-0.164960 -0.031924 0.098042 255 0 0
-0.345307 -0.137713 -0.017982 255 0 0
0.041910 0.718455 -0.421723 76 153 0
0.297596 -0.117872 0.550200 255 0 0
0.361348 -0.304587 0.456094 0 127 127
0.125212 0.270771 -0.318987 76 153 0
0.095016 -0.137772 -0.127399 255 0 0
-0.252037 -0.031924 -0.075753 255 0 0
0.324880 -0.031924 0.345961 255 0 0
0.010313 0.737879 -0.400239 76 153 0
0.107537 0.790263 -0.417398 76 153 0
-0.121769 0.492327 -0.333298 76 153 0
0.079959 -0.031924 0.270253 255 0 0
0.004441 0.047496 -0.268200 76 153 0
-0.196655 0.119549 -0.274072 76 153 0
-0.376400 -0.581305 0.441775 76 0 153
0.256679 -0.031924 -0.199317 255 0 0
0.225981 -0.031924 0.163051 255 0 0
-0.183387 -0.137772 0.306802 255 0 0
-0.386936 -0.045942 0.364094 255 0 0
-0.247199 0.127723 -0.301447 76 153 0
-0.271109 -0.137772 -0.206188 255 0 0
-0.233943 -0.143524 -0.261068 76 153 0
-0.255372 -0.031924 0.089741 255 0 0
-0.186110 -0.031924 -0.091843 255 0 0
-0.269577 -0.051300 -0.261302 255 0 0
0.337345 -0.139191 -0.067894 255 0 0
0.191477 0.249020 -0.315669 76 153 0
0.365615 -0.088798 0.058371 255 0 0
0.192554 -0.152558 -0.287408 76 153 0
0.385464 -0.043616 0.286636 255 0 0
-0.027237 -0.137772 0.053140 255 0 0
-0.279480 -0.031924 0.223302 255 0 0
-0.260900 -0.137772 -0.014513 255 0 0
-0.069888 -0.151136 -0.287427 76 153 0
-0.113229 -0.086967 -0.288311 76 153 0
0.285278 -0.258236 -0.280215 76 153 0
0.347114 -0.137772 0.165013 255 0 0
-0.309246 -0.031924 0.222703 255 0 0
-0.108459 0.693134 -0.386406 76 153 0
-0.091803 0.031001 -0.267063 76 153 0
-0.133924 0.369560 -0.335371 76 153 0
-0.332807 -0.155414 0.139791 0 0 255
0.128612 -0.073968 -0.288526 76 153 0
-0.231716 0.045366 -0.268053 76 153 0
-0.282949 0.000733 -0.278350 0 127 127
-0.209189 -0.031924 -0.231416 255 0 0
-0.343484 -0.034186 -0.100953 255 0 0
-0.335938 -0.137772 0.453894 204 51 127
-0.291201 -0.137772 -0.175189 255 0 0
0.172953 0.665386 -0.378156 76 153 0
-0.226632 -0.031924 0.029910 255 0 0
-0.036924 -0.031924 0.534066 255 0 0
0.203603 0.527457 -0.341670 76 153 0
-0.262373 -0.133729 -0.272064 76 153 0
-0.361101 -0.777523 0.455657 76 0 153
-0.064169 -0.064828 -0.288904 76 153 0
-0.123112 -0.031924 0.327778 255 0 0
0.250392 0.318767 -0.326309 76 153 0
-0.312586 -0.137772 0.504163 255 0 0
-0.088933 0.681277 -0.382881 76 153 0
0.297469 -0.702335 -0.362688 76 153 0
0.185521 -0.137772 -0.218287 255 0 0
0.320561 0.349078 -0.322957 127 0 127
-0.057194 0.019045 -0.266239 76 153 0
-0.262373 0.047589 -0.278507 76 153 0
-0.020647 0.130813 -0.275160 76 153 0
-0.334207 -0.036145 -0.226564 255 0 0
0.097863 0.304409 -0.324119 76 153 0
-0.080471 0.479619 -0.357494 76 153 0
-0.355479 -0.659869 0.438438 76 0 153
0.379332 -0.503323 0.436822 0 127 127
-0.020993 -0.031924 0.246749 255 0 0
-0.129554 0.121488 -0.300844 76 153 0
0.193453 0.483132 -0.331194 76 153 0
-0.363187 -0.693362 0.437768 76 0 153
0.008674 0.672774 -0.380353 76 153 0
-0.234131 0.761786 -0.408070 76 153 0
-0.185120 -0.031924 -0.248886 255 0 0
-0.301081 -0.137772 0.469554 255 0 0
-0.208993 -0.137772 0.422707 255 0 0
-0.110174 0.418845 -0.344767 76 153 0
0.113867 -0.032169 -0.254339 255 0 0
-0.300559 0.374022 -0.382198 153 0 76
-0.035069 0.318331 -0.326242 76 153 0
-0.038896 -0.137772 0.392918 255 0 0
0.311443 -0.452644 -0.306632 76 153 0
-0.342677 -0.185261 0.457259 76 0 153
-0.363090 -0.138186 0.288707 0 0 255
0.012924 -0.031924 -0.207665 255 0 0
0.011650 0.553446 -0.375067 76 153 0
-0.130683 0.704097 -0.417273 76 153 0
-0.389620 -0.047512 0.394957 255 0 0
-0.172205 0.387967 -0.349111 153 0 76
0.321993 -0.137772 -0.062130 153 0 76
0.003211 0.533864 -0.370400 76 153 0
0.298320 -0.315972 -0.303250 76 153 0
0.121754 0.503959 -0.363273 76 153 0
-0.048040 -0.145393 -0.260904 76 153 0
-0.262373 0.724748 -0.416747 76 153 0
-0.208302 0.711503 -0.419475 76 153 0
0.280659 -0.155414 -0.257209 76 0 153
-0.340126 -0.031924 0.382489 255 0 0
-0.217463 -0.137772 0.159356 255 0 0
0.124002 0.379401 -0.384393 153 0 76
0.225587 0.492572 -0.333356 76 153 0
-0.214664 -0.137772 -0.010176 255 0 0
-0.173582 -0.031924 -0.234296 255 0 0
-0.074970 -0.137772 0.372855 255 0 0
-0.009102 -0.035855 0.548651 255 0 0
0.120678 0.034033 -0.293797 76 153 0
0.148860 0.382691 -0.349111 76 153 0
-0.160777 0.503363 -0.335928 76 153 0
-0.157067 0.485779 -0.358940 76 153 0
-0.099865 -0.146060 0.439703 204 51 127
0.351166 -0.392895 0.456979 0 127 127
0.059366 0.161102 -0.278087 76 153 0
0.224966 -0.031924 0.178810 255 0 0
0.297988 -0.208085 -0.269007 76 153 0
0.320561 -0.693304 -0.354207 76 153 0
-0.152964 -0.031924 0.241072 255 0 0
0.185314 0.750419 -0.432192 76 153 0
-0.315565 -0.031924 -0.025779 255 0 0
-0.208941 -0.137772 0.371342 255 0 0
-0.283905 -0.146453 -0.216168 0 0 255
-0.155651 -0.150310 0.404553 204 51 127
0.150082 -0.108102 0.550200 255 0 0
0.252266 -0.035048 -0.263649 76 153 0
0.188138 0.374022 -0.365316 153 0 76
-0.220345 -0.046556 -0.263174 76 153 0
-0.186861 -0.031924 -0.039103 255 0 0
0.168069 0.284016 -0.294239 76 153 0
0.285278 -0.341598 -0.304714 76 153 0
0.123975 -0.155414 -0.248567 76 0 153
0.143289 -0.031924 0.365317 255 0 0
0.080166 0.456366 -0.325588 76 153 0
0.235571 -0.155414 -0.247287 76 0 153
0.113014 0.474132 -0.329309 76 153 0
0.054874 -0.031924 0.456155 255 0 0
-0.239012 -0.031924 -0.249111 255 0 0
0.319893 0.219583 -0.285633 127 0 127
0.384616 -0.066995 0.276881 255 0 0
0.019798 -0.137772 0.339515 255 0 0
0.163227 -0.155414 -0.246350 76 0 153
0.032292 -0.137772 0.169766 255 0 0
0.358215 -0.701182 0.438658 0 127 127
0.241078 0.289142 -0.321789 76 153 0
-0.364690 -0.155414 0.373420 0 0 255
0.114220 0.223446 -0.285675 76 153 0
0.144535 0.644695 -0.399611 76 153 0
0.185453 -0.137772 0.126371 255 0 0
-0.295718 -0.176214 -0.281750 153 0 76
-0.123792 0.533793 -0.370383 76 153 0
0.146934 0.446685 -0.350597 76 153 0
0.289579 -0.275210 -0.279334 76 153 0
0.368820 -0.811703 0.455444 0 127 127
0.252803 -0.031924 0.428321 255 0 0
-0.334561 -0.137772 0.178824 255 0 0
0.022995 -0.031924 0.458220 255 0 0
-0.239799 -0.023582 -0.264123 76 153 0
0.184559 -0.137772 -0.058416 255 0 0
0.339966 -0.155414 0.146038 153 0 76
-0.356038 -0.283259 0.456098 76 0 153
-0.013393 -0.137772 0.335315 255 0 0
0.371320 -0.178347 0.455226 0 127 127
-0.066521 -0.031924 -0.123055 255 0 0
0.000309 0.655453 -0.402810 76 153 0
0.381613 -0.758173 0.441191 0 127 127
-0.208380 -0.137772 0.080846 255 0 0
0.096246 -0.031924 -0.210983 255 0 0
0.096429 -0.137772 0.264196 255 0 0
0.033647 -0.119430 -0.287864 76 153 0
0.341050 -0.047096 -0.224130 255 0 0
0.037733 -0.031924 0.385568 255 0 0
0.167308 0.452422 -0.324762 76 153 0
-0.126627 0.317547 -0.326123 76 153 0
0.223303 0.476043 -0.329709 76 153 0
-0.215456 0.390497 -0.384393 153 0 76
0.097862 -0.137772 0.164517 255 0 0
0.268691 -0.137772 -0.213174 255 0 0
0.249495 0.526110 -0.368552 76 153 0
-0.168924 -0.031924 -0.154867 255 0 0
-0.333533 -0.135710 -0.212385 255 0 0
0.059787 0.252766 -0.289472 76 153 0
-0.289449 -0.155414 -0.241983 76 0 153
0.354675 -0.151134 0.131405 153 0 76
-0.044468 0.382471 -0.384393 153 0 76
0.159579 -0.031924 0.032566 255 0 0
0.166963 -0.031924 0.005013 255 0 0
-0.180426 0.036838 -0.293990 76 153 0
-0.373566 -0.118833 0.210334 255 0 0
-0.110612 -0.154914 0.404553 204 51 127
-0.280015 -0.702810 -0.347226 153 0 76
0.041786 0.644843 -0.399655 76 153 0
0.081324 0.082307 -0.297124 76 153 0
-0.032350 0.108586 -0.273012 76 153 0
0.347440 -0.140017 0.048202 153 0 76
0.000733 -0.031924 0.183420 255 0 0
-0.108368 0.010813 -0.265671 76 153 0
-0.101348 -0.140284 0.404553 255 0 0
0.094641 0.630933 -0.395661 76 153 0
0.371840 -0.079289 0.129959 255 0 0
-0.272668 -0.137772 0.238023 255 0 0
0.263785 -0.137772 -0.185234 255 0 0
0.348262 -0.101741 -0.141186 255 0 0
-0.148338 -0.108061 -0.288020 76 153 0
-0.376233 -0.212019 0.439857 76 0 153
0.154698 -0.026587 -0.263999 76 153 0
0.221816 0.555159 -0.375475 76 153 0
-0.123944 -0.029258 -0.290373 76 153 0
0.388358 -0.063929 0.319912 255 0 0
-0.062446 0.270248 -0.318907 76 153 0
0.267958 -0.137772 0.382226 255 0 0
0.346325 -0.552670 0.439692 0 127 127
-0.219801 -0.137772 0.487144 255 0 0
0.204479 0.313824 -0.298787 76 153 0
0.099822 0.414918 -0.316908 76 153 0
0.060181 0.201379 -0.282928 76 153 0
-0.153985 0.582148 -0.355212 76 153 0
-0.315446 -0.034047 0.547017 255 0 0
0.086484 0.443039 -0.349833 76 153 0
0.216550 -0.027522 -0.290445 76 153 0
0.039901 -0.137772 0.453705 255 0 0
-0.107908 -0.137772 -0.066912 255 0 0
0.260408 -0.145162 0.404553 204 51 127
0.365370 -0.031924 0.517700 255 0 0
-0.189190 0.200340 -0.309465 76 153 0
0.086044 0.497681 -0.361777 76 153 0
-0.349254 -0.235439 0.456687 76 0 153
-0.017424 -0.137772 -0.191026 255 0 0
0.351304 -0.125423 -0.106214 255 0 0
0.002294 -0.137772 0.350722 255 0 0
-0.088306 0.211501 -0.284188 76 153 0
-0.052050 -0.154996 -0.225754 76 0 153
0.112440 0.510017 -0.337514 76 153 0
-0.093399 0.504411 -0.336178 76 153 0
-0.376714 -0.431717 0.445388 76 0 153
0.089555 0.704968 -0.417532 76 153 0
-0.165933 -0.095313 -0.261731 76 153 0
-0.221454 0.568513 -0.351563 76 153 0
-0.309527 -0.392597 -0.297394 153 0 76
-0.012832 0.061883 -0.295716 76 153 0
0.233270 0.640812 -0.398457 76 153 0
0.128187 0.788401 -0.444633 76 153 0
0.093641 -0.137772 0.530185 255 0 0
-0.185836 -0.031924 0.006063 255 0 0
-0.131898 0.602979 -0.360787 76 153 0
0.290109 -0.154132 -0.205355 153 0 76
0.028742 0.160787 -0.304642 76 153 0
0.363821 -0.137772 0.245027 153 0 76
0.167312 0.390066 -0.312189 76 153 0
0.116937 -0.031924 -0.045376 255 0 0
-0.193303 0.316477 -0.325960 76 153 0
0.148942 0.175572 -0.279715 76 153 0
0.302803 -0.031924 0.314099 255 0 0
-0.035962 0.416300 -0.344234 76 153 0
0.208898 0.633743 -0.396413 76 153 0
-0.196823 -0.092043 0.550200 255 0 0
-0.315297 -0.131828 -0.268302 0 127 127
0.187720 0.382106 -0.337640 76 153 0
0.229464 -0.137772 0.307351 255 0 0
-0.347267 -0.479907 0.456860 76 0 153
0.076425 -0.031924 -0.237948 255 0 0
0.206253 -0.031924 0.154472 255 0 0
0.053157 0.038514 -0.294105 76 153 0
-0.176400 -0.031924 0.437296 255 0 0
-0.155027 -0.076924 -0.288449 76 153 0
0.168252 0.052409 -0.268538 76 153 0
0.319642 -0.150515 0.134279 153 0 76
-0.192893 0.391468 -0.365922 153 0 76
-0.053031 0.430466 -0.320164 76 153 0
-0.282108 -0.678552 -0.359029 153 0 76
0.196182 0.206177 -0.310192 76 153 0
-0.163154 0.003347 -0.265236 76 153 0
-0.212660 -0.155414 -0.244207 76 0 153
-0.081509 -0.031924 0.057551 255 0 0
0.092058 -0.149539 0.439703 204 51 127
-0.073652 0.730687 -0.425729 76 153 0
0.197383 0.055418 -0.268746 76 153 0
-0.262373 0.713070 -0.405266 76 153 0
0.226039 0.287174 -0.294721 76 153 0
0.051604 0.191909 -0.308416 76 153 0
-0.248468 0.481876 -0.358010 76 153 0
0.375188 -0.034900 0.547768 255 0 0
-0.361496 -0.137772 0.223101 255 0 0
0.336510 -0.149226 0.328263 153 0 76
0.350911 -0.091606 -0.110732 255 0 0
0.300468 0.021021 -0.260904 127 0 127
-0.280015 0.052305 -0.277738 0 127 127
-0.360638 -0.122372 0.061668 255 0 0
-0.012811 -0.031924 -0.231972 255 0 0
-0.164643 -0.031924 -0.038465 255 0 0
0.120427 0.131667 -0.275243 76 153 0
-0.275058 -0.031924 0.123227 255 0 0
-0.383553 -0.137772 0.427815 255 0 0
-0.130409 -0.031924 0.498826 255 0 0
-0.081337 0.423658 -0.318739 76 153 0
0.319781 -0.137432 0.543759 255 0 0
-0.237286 -0.031924 0.323327 255 0 0
0.133087 0.778934 -0.413687 76 153 0
0.058784 0.550568 -0.374381 76 153 0
0.106396 0.256046 -0.289972 76 153 0
-0.022006 -0.031924 0.162146 255 0 0
-0.270194 -0.031924 -0.008077 255 0 0
0.060499 0.604127 -0.388487 76 153 0
0.312414 -0.349429 -0.308398 76 153 0
0.302356 0.081822 -0.278350 127 0 127
-0.274689 -0.031924 0.479942 255 0 0
0.248764 -0.031924 0.326862 255 0 0
-0.341864 -0.067851 -0.154231 255 0 0
0.394658 -0.061606 0.541884 255 0 0
0.182759 -0.024515 -0.290569 76 153 0
-0.211175 0.377577 -0.349111 153 0 76
0.350035 -0.137772 0.523633 255 0 0
0.094454 0.471619 -0.355819 76 153 0
0.216789 -0.031924 -0.174271 255 0 0
-0.186763 -0.141484 -0.261096 255 0 0
-0.091478 -0.031924 0.372836 255 0 0
-0.316213 -0.031924 0.026984 255 0 0
0.201668 0.391468 -0.353505 153 0 76
-0.144421 -0.031924 -0.130790 255 0 0
0.274924 -0.095761 -0.261302 76 153 0
0.208602 0.344929 -0.330917 76 153 0
-0.109291 0.627933 -0.394858 76 153 0
-0.343459 -0.070993 -0.135893 255 0 0
-0.092954 0.471212 -0.355733 76 153 0
0.230563 0.432968 -0.347724 76 153 0
-0.048723 -0.137772 0.205661 255 0 0
-0.190351 0.330946 -0.301497 76 153 0
0.219542 0.769674 -0.410654 76 153 0
-0.207860 -0.031924 0.514069 255 0 0
-0.149857 0.706734 -0.390450 76 153 0
0.162081 -0.031924 0.490246 255 0 0
-0.391647 -0.093088 0.418269 255 0 0
-0.344789 -0.111973 -0.120593 255 0 0
-0.341733 -0.323000 0.439634 76 0 153
-0.161077 -0.137772 0.213751 255 0 0
0.313753 -0.137772 0.004512 255 0 0
-0.076308 0.076946 -0.270229 76 153 0
0.374122 -0.531209 0.437275 0 127 127
0.380399 -0.678429 0.436729 0 127 127
0.401459 -0.086089 0.470577 255 0 0
-0.051357 -0.008096 -0.264763 76 153 0
-0.302270 -0.019623 -0.260904 0 127 127
-0.093708 0.629299 -0.367830 76 153 0
-0.001814 -0.137772 0.131932 255 0 0
-0.284836 -0.031924 0.090918 255 0 0
-0.161363 -0.031924 0.462446 255 0 0
-0.255937 -0.155414 -0.244034 76 0 153
-0.391545 -0.113891 0.417100 255 0 0
-0.315297 0.143543 -0.282283 0 127 127
0.056521 -0.031924 0.487646 255 0 0
-0.228919 0.271428 -0.319087 76 153 0
0.311183 0.264334 -0.315623 127 0 127
-0.286228 -0.443434 -0.305215 153 0 76
0.265261 -0.031924 -0.230202 255 0 0
0.384047 -0.033016 0.323759 255 0 0
-0.361274 -0.031924 0.298030 255 0 0
0.377576 -0.031924 0.509123 255 0 0
0.118424 0.356693 -0.306153 76 153 0
0.003900 -0.126442 -0.261302 255 0 0
-0.030393 -0.108688 -0.288012 76 153 0
-0.251857 -0.031924 0.345259 255 0 0
-0.230369 -0.031924 0.478044 255 0 0
-0.092256 0.461191 -0.326599 76 153 0
0.376657 -0.041181 0.185348 255 0 0
0.267637 0.389363 -0.322366 76 153 0
-0.364363 -0.200555 0.455374 76 0 153
0.272285 -0.137772 -0.016966 255 0 0
-0.205559 -0.075674 -0.262001 76 153 0
0.220896 -0.137772 0.377628 255 0 0
0.347487 -0.739704 0.454492 0 127 127
0.291103 -0.137772 0.394508 255 0 0
0.210187 -0.143979 0.439703 204 51 127
-0.121235 0.773365 -0.439708 76 153 0
0.099380 -0.031924 0.424743 255 0 0
-0.319054 -0.133185 0.408954 204 51 127
0.186236 -0.031924 -0.012816 255 0 0
-0.226762 0.099981 -0.272181 76 153 0
-0.235240 0.078422 -0.270331 76 153 0
-0.151402 0.426962 -0.346467 76 153 0
-0.303362 -0.137772 0.098033 255 0 0
0.218962 0.689449 -0.385311 76 153 0
-0.034145 0.656202 -0.403032 76 153 0
0.056352 0.644210 -0.371860 76 153 0
0.009821 -0.031924 -0.176901 255 0 0
-0.086652 0.522568 -0.367708 76 153 0
0.350344 -0.464438 0.439342 0 127 127
0.352694 -0.031924 0.504881 255 0 0
-0.309029 0.122026 -0.260904 0 127 127
0.285278 -0.611704 -0.338631 76 153 0
-0.345195 -0.136494 -0.066468 255 0 0
-0.060928 0.760197 -0.407550 76 153 0
0.350195 -0.031924 0.394668 255 0 0
0.029758 0.096930 -0.298471 76 153 0
-0.379645 -0.042488 0.280249 255 0 0
-0.061739 0.082307 -0.270599 76 153 0
-0.026544 0.103507 -0.299107 76 153 0
0.340488 -0.153521 -0.031741 153 0 76
0.395647 -0.134174 0.424569 255 0 0
-0.128375 0.356231 -0.306070 76 153 0
0.360590 -0.221058 0.438452 0 127 127
0.326743 -0.151738 0.215937 153 0 76
0.363409 -0.124513 0.033004 255 0 0
-0.133820 0.544602 -0.372959 76 153 0
0.305936 -0.842544 -0.384258 76 153 0
0.381512 -0.039805 0.242607 255 0 0
-0.342391 -0.137772 0.068082 255 0 0
0.043732 -0.038996 -0.289971 76 153 0
0.065431 0.793184 -0.431996 76 153 0
0.076281 -0.085846 0.550200 255 0 0
0.347422 -0.460357 0.453749 0 127 127
-0.026459 0.774348 -0.412185 76 153 0
0.264039 -0.031924 0.260228 255 0 0
0.075015 -0.065878 0.550200 255 0 0
0.181650 -0.137772 0.001033 255 0 0
0.240019 -0.031924 0.312785 255 0 0
-0.358601 -0.137772 0.468463 255 0 0
-0.385117 -0.136392 0.540063 255 0 0
-0.071889 -0.137772 0.032080 255 0 0
0.008260 0.725954 -0.424179 76 153 0
-0.298166 -0.768616 -0.372885 153 0 76
-0.262631 -0.137772 0.183661 255 0 0
-0.047136 0.777924 -0.441201 76 153 0
-0.164170 0.320021 -0.326500 76 153 0
0.060770 -0.137772 -0.070663 255 0 0
-0.241177 -0.102363 -0.261302 76 153 0
0.027494 0.785070 -0.415697 76 153 0
-0.064851 0.384537 -0.349111 153 0 76
0.004534 0.181339 -0.307100 76 153 0
-0.226528 0.534841 -0.370633 76 153 0
0.136646 0.322691 -0.326908 76 153 0
-0.303499 0.230469 -0.306592 0 127 127
-0.066580 -0.031924 0.471940 255 0 0
-0.347568 -0.031924 0.032702 255 0 0
-0.320421 -0.146946 0.203772 0 0 255
0.071161 -0.137772 0.292145 255 0 0
0.351298 -0.805892 0.439259 0 127 127
-0.106367 0.218165 -0.311684 76 153 0
-0.033856 -0.155414 0.415666 204 51 127
0.339533 -0.090567 -0.233137 255 0 0
-0.298237 -0.031924 0.349228 255 0 0
0.353057 -0.102712 -0.086046 255 0 0
0.059794 0.127712 -0.301446 76 153 0
0.083346 -0.137772 0.246298 255 0 0
-0.346355 -0.069999 -0.102584 255 0 0
0.161658 -0.155414 0.438098 204 51 127
-0.253497 -0.001896 -0.291504 76 153 0
-0.125578 0.448832 -0.324011 76 153 0
0.030413 0.675495 -0.408769 76 153 0
0.096949 0.193039 -0.281890 76 153 0
0.021299 -0.031924 0.435046 255 0 0
0.144165 -0.155414 0.426982 204 51 127
0.055178 0.747016 -0.431077 76 153 0
-0.114354 0.124463 -0.301132 76 153 0
-0.115073 -0.137772 0.035719 255 0 0
-0.160007 0.409689 -0.315813 76 153 0
-0.049246 -0.137772 0.034367 255 0 0
0.267637 0.193306 -0.285214 76 153 0
-0.295738 0.081218 -0.278350 0 127 127
-0.124073 0.304994 -0.297440 76 153 0
-0.352638 -0.155414 0.323390 0 0 255
0.256333 -0.031924 0.225249 255 0 0
-0.168942 -0.031924 0.220699 255 0 0
0.291087 -0.031924 0.492167 255 0 0
-0.101362 0.566387 -0.378388 76 153 0
0.128314 0.197946 -0.282501 76 153 0
0.373052 -0.113566 0.143896 255 0 0
0.155064 -0.137772 0.318689 255 0 0
0.369963 -0.519947 0.455344 0 127 127
-0.211299 0.589246 -0.384505 76 153 0
-0.116454 -0.137772 0.222408 255 0 0
-0.157708 0.559673 -0.376591 76 153 0
0.140045 -0.128263 -0.261302 76 153 0
0.009757 0.610288 -0.362743 76 153 0
0.157288 -0.031924 0.292220 255 0 0
-0.134190 0.015875 -0.292545 76 153 0
0.255665 0.630223 -0.368078 76 153 0
-0.073714 -0.031924 0.001416 255 0 0
0.068844 0.344376 -0.330817 76 153 0
-0.003523 0.111825 -0.273325 76 153 0
0.221051 0.366825 -0.307985 76 153 0
-0.363574 -0.808006 0.455442 76 0 153
0.171115 0.117014 -0.300412 76 153 0
-0.144043 -0.031924 -0.018749 255 0 0
0.094256 0.026022 -0.293244 76 153 0
-0.248154 -0.149695 -0.260904 76 153 0
-0.268205 -0.137772 0.025714 255 0 0
-0.195742 0.436655 -0.348496 76 153 0
-0.310495 -0.151517 0.089625 0 0 255
0.064361 0.371584 -0.335737 76 153 0
-0.231442 -0.137772 0.168605 255 0 0
0.342967 -0.139476 0.402517 153 0 76
-0.165560 -0.137772 0.164665 255 0 0
0.382144 -0.338599 0.447299 0 127 127
-0.297204 -0.801342 -0.360278 153 0 76
-0.065465 -0.093808 -0.261302 255 0 0
0.198406 -0.137772 0.303835 255 0 0
-0.106730 -0.031924 -0.086086 255 0 0
0.109282 0.068747 -0.296189 76 153 0
0.176516 -0.031924 0.497594 255 0 0
-0.135694 0.306125 -0.324380 76 153 0
0.320554 -0.378552 -0.312878 76 153 0
-0.074828 -0.145413 -0.225754 76 0 153
-0.042838 0.584070 -0.383120 76 153 0
0.061585 -0.137772 0.412367 204 51 127
0.230897 -0.137772 0.357480 255 0 0
0.256945 -0.137772 0.003791 255 0 0
0.132641 -0.137772 0.189729 255 0 0
-0.172101 -0.031924 0.517494 255 0 0
0.088119 -0.137772 0.198577 255 0 0
-0.393840 -0.033608 0.486838 255 0 0
0.145364 -0.031924 -0.045898 255 0 0
0.004571 -0.031924 0.222631 255 0 0
-0.294542 -0.137772 0.228259 255 0 0
-0.259405 0.282321 -0.293981 76 153 0
-0.301111 -0.109897 0.550200 255 0 0
0.331473 -0.031924 0.323481 255 0 0
0.220669 0.226252 -0.312691 76 153 0
0.143791 -0.046941 0.550200 255 0 0
-0.143744 -0.115971 -0.261447 76 153 0
0.053699 -0.031924 0.415482 255 0 0
-0.123230 0.533315 -0.343066 76 153 0
-0.048416 -0.133185 0.419536 255 0 0
-0.174866 -0.031924 0.262952 255 0 0
0.305306 -0.619332 -0.349919 76 153 0
-0.262373 0.599723 -0.372438 76 153 0
-0.080831 -0.031924 -0.225017 255 0 0
0.282658 -0.031924 0.019659 255 0 0
-0.215376 0.421664 -0.345357 76 153 0
0.157025 0.374022 -0.381472 153 0 76
-0.249976 -0.155414 0.419347 204 51 127
0.050659 0.695560 -0.414735 76 153 0
0.090928 0.185364 -0.307601 76 153 0
0.040854 0.666656 -0.378534 76 153 0
0.282434 -0.031924 0.396099 255 0 0
0.128635 -0.031924 0.521437 255 0 0
0.182886 -0.137772 0.157722 255 0 0
-0.316369 -0.031924 0.423769 255 0 0
0.173059 -0.051506 0.550200 255 0 0
-0.213323 -0.155592 -0.273861 76 153 0
-0.302423 -0.031924 -0.071600 255 0 0
0.303969 -0.137772 0.422632 204 51 127
-0.250182 -0.137772 0.369727 255 0 0
0.296691 -0.767297 -0.372682 76 153 0
0.053515 -0.148415 -0.225754 76 0 153
0.322694 -0.137772 0.184876 255 0 0
0.308089 -0.137772 -0.093501 255 0 0
-0.366356 -0.351360 0.455200 76 0 153
-0.212876 -0.031924 0.050614 255 0 0
0.320561 -0.470090 -0.326635 76 153 0
0.076764 -0.031924 0.034912 255 0 0
-0.373182 -0.788974 0.454607 76 0 153
0.245836 -0.137772 -0.129432 255 0 0
-0.115823 -0.031924 0.170399 255 0 0
-0.007643 -0.031924 0.458890 255 0 0
-0.338622 -0.109632 -0.191517 255 0 0
0.339372 -0.137772 0.344128 153 0 76
0.033987 -0.145835 0.439703 204 51 127
0.256519 0.227123 -0.286133 76 153 0
-0.082443 0.500723 -0.362502 76 153 0
-0.207328 -0.137772 -0.106166 255 0 0
-0.260049 0.386102 -0.311472 76 153 0
-0.113048 0.054319 -0.268670 76 153 0
-0.051629 -0.137772 0.153253 255 0 0
-0.341502 -0.432203 0.446199 76 0 153
-0.384338 -0.090126 0.334213 255 0 0
-0.159377 0.593057 -0.385525 76 153 0
-0.384684 -0.060709 0.338196 255 0 0
-0.032504 -0.137772 0.529453 255 0 0
-0.218820 0.449771 -0.324207 76 153 0
-0.073805 -0.137772 0.486177 255 0 0
-0.130393 -0.056765 -0.262752 76 153 0
-0.284117 -0.137772 0.282913 255 0 0
0.126232 -0.137772 -0.254429 76 0 153
0.403289 -0.070805 0.491615 255 0 0
0.333148 -0.031924 0.524395 255 0 0
-0.369452 -0.121320 0.163029 255 0 0
-0.015803 -0.031924 0.280745 255 0 0
0.203947 -0.146992 -0.261020 76 153 0
-0.248680 0.731701 -0.398216 76 153 0
0.358614 -0.031924 0.321514 255 0 0
-0.126532 -0.031924 0.411569 255 0 0
0.183287 -0.155414 -0.251779 76 0 153
-0.285471 -0.137772 0.375292 255 0 0
-0.227148 0.450943 -0.351489 76 153 0
-0.262373 0.114318 -0.295720 76 153 0
0.145395 -0.031924 -0.070274 255 0 0
-0.362745 -0.578682 0.455514 76 0 153
0.283903 -0.137772 -0.151146 255 0 0
0.379588 -0.241352 0.454507 0 127 127
0.270901 -0.137772 -0.124006 255 0 0
-0.076416 0.446718 -0.350604 76 153 0
0.368853 -0.433154 0.437733 0 127 127
-0.243228 -0.031924 -0.047525 255 0 0
0.357588 -0.032245 0.040942 255 0 0
0.100594 -0.137772 -0.250119 76 0 153
-0.111630 0.393644 -0.339727 76 153 0
-0.100101 -0.137772 0.082139 255 0 0
-0.336879 -0.085622 -0.211569 255 0 0
-0.165915 -0.137772 0.337153 255 0 0
-0.175023 0.331920 -0.328564 76 153 0
0.346790 -0.591967 0.446476 0 127 127
-0.379741 -0.067250 0.281351 255 0 0
0.287803 -0.031924 -0.109702 255 0 0
-0.158737 -0.031924 0.538475 255 0 0
-0.161725 0.140953 -0.276140 76 153 0
0.008454 -0.133185 0.417826 204 51 127
0.039020 0.019988 -0.266304 76 153 0
-0.261446 -0.137772 -0.230998 76 0 153
-0.330109 -0.031924 0.001179 255 0 0
0.121776 0.371656 -0.335750 76 153 0
-0.262373 0.782683 -0.416341 76 153 0
0.209744 -0.031924 -0.239775 255 0 0
0.267247 -0.031924 0.125126 255 0 0
-0.293381 -0.238147 -0.273632 153 0 76
-0.172732 0.461144 -0.353625 76 153 0
0.355953 -0.301477 0.438855 0 127 127
0.087304 0.492088 -0.333241 76 153 0
0.042114 -0.137772 0.086180 255 0 0
0.091792 0.563130 -0.350172 76 153 0
-0.033190 -0.038783 0.549942 255 0 0
-0.331291 -0.142271 -0.076974 0 0 255
0.020960 -0.020792 -0.290723 76 153 0
-0.017982 -0.155726 -0.283628 76 153 0
0.252787 0.310258 -0.298243 76 153 0
-0.198570 0.546281 -0.346156 76 153 0
0.359013 -0.155414 0.394432 153 0 76
-0.065798 -0.031924 0.450261 255 0 0
0.344307 -0.031924 -0.068500 255 0 0
0.101924 -0.031924 -0.128705 255 0 0
0.127170 0.628622 -0.367649 76 153 0
-0.069467 0.330661 -0.301445 76 153 0
0.063281 0.749940 -0.404190 76 153 0
0.156368 0.735575 -0.399484 76 153 0
0.267637 -0.023257 -0.276271 76 153 0
-0.347997 -0.053729 -0.083709 255 0 0
-0.293312 -0.031924 -0.047700 255 0 0
-0.235601 -0.020390 -0.290740 76 153 0
-0.073727 -0.155414 -0.249904 76 0 153
0.265235 -0.031924 0.539180 255 0 0
0.148164 0.520612 -0.367242 76 153 0
-0.116429 -0.137772 -0.150481 255 0 0
-0.280015 -0.214383 -0.286366 153 0 76
0.382158 -0.716286 0.447456 0 127 127
-0.200655 0.516929 -0.339161 76 153 0
0.287666 -0.137772 0.198845 255 0 0
-0.314136 -0.776539 -0.356462 153 0 76
0.092233 -0.031924 -0.141011 255 0 0
-0.077861 -0.137772 -0.192937 255 0 0
-0.193568 0.375431 -0.384393 153 0 76
0.359854 -0.031924 0.197596 255 0 0
0.158751 -0.031924 0.233539 255 0 0
0.360315 -0.496869 0.456183 0 127 127
-0.034203 0.512080 -0.365208 76 153 0
-0.029630 0.541010 -0.344900 76 153 0
-0.074176 -0.031924 0.501063 255 0 0
0.347593 -0.196520 0.455720 0 127 127
-0.085294 -0.031924 0.083823 255 0 0
-0.255274 -0.031924 0.032368 255 0 0
-0.155235 0.197391 -0.282432 76 153 0
-0.377126 -0.223575 0.450120 76 0 153
