ply
format ascii 1.0
element vertex 1269
property float x
property float y
property float z
property uchar red
property uchar green
property uchar blue
end_header
0.360209 -0.198363 -0.172604 153 0 76
-0.067643 0.298981 -0.312909 76 0 153
0.372533 -0.025658 0.380041 76 153 0
-0.376625 -0.008661 -0.133757 76 153 0
-0.317297 0.533210 -0.358366 76 0 153
0.185968 0.344699 -0.321754 76 0 153
-0.321916 0.100823 -0.247214 76 0 153
-0.323923 -0.040423 0.468502 127 127 0
0.223402 0.011597 0.379875 76 153 0
0.379460 -0.296605 -0.198473 153 0 76
0.117501 0.406022 -0.308100 76 0 153
-0.366092 -0.002621 0.145647 76 153 0
0.191772 -0.022390 0.225914 76 153 0
-0.376332 -0.012804 -0.082085 76 153 0
-0.123684 0.212226 -0.295977 76 0 153
-0.086676 0.635840 -0.352068 76 0 153
-0.308667 0.523689 -0.330341 76 0 153
0.104670 0.011426 0.376616 76 153 0
0.373892 -0.329022 -0.227388 153 0 76
0.021560 -0.018850 0.362242 76 153 0
0.233111 -0.055194 0.408300 0 127 127
-0.091816 -0.072002 0.058089 127 0 127
-0.287156 0.532610 -0.358249 76 0 153
-0.381953 -0.775836 -0.256117 76 0 153
0.179345 0.003894 0.232873 76 153 0
0.363499 0.334429 -0.293769 76 0 153
0.352152 0.374073 -0.327460 76 0 153
-0.380450 0.036004 -0.244071 76 0 153
-0.124798 0.007055 0.302849 76 153 0
0.344416 -0.087244 0.012738 0 255 0
0.358578 0.397286 -0.331893 76 0 153
-0.008926 -0.010395 -0.039759 76 153 0
0.364476 0.009110 0.475139 76 153 0
0.216255 0.482267 -0.348570 76 0 153
0.070452 0.017886 0.500482 76 153 0
0.338577 -0.059010 0.185346 0 255 0
-0.043959 -0.039247 -0.007196 76 153 0
0.337285 0.482751 -0.323282 76 0 153
-0.360389 -0.523947 0.516766 0 127 127
-0.041749 0.080803 -0.239967 76 0 153
0.060039 0.657217 -0.369075 76 0 153
-0.052645 0.571347 -0.365884 76 0 153
-0.362030 -0.010456 0.508557 76 153 0
-0.269369 0.014702 0.441817 76 153 0
-0.020576 0.373946 -0.327433 76 0 153
0.151760 0.464369 -0.319746 76 0 153
0.245989 -0.005062 0.077412 76 153 0
0.302932 -0.011042 0.488433 76 153 0
-0.277676 0.635928 -0.378430 76 0 153
-0.049413 0.272044 -0.307616 76 0 153
0.351273 0.119787 -0.277958 76 0 153
0.320948 -0.044546 -0.002608 0 255 0
-0.253104 0.021671 -0.196508 76 153 0
-0.397068 -0.240958 -0.194394 76 153 0
-0.180357 0.049628 -0.222560 76 0 153
-0.346331 -0.176879 0.521970 0 127 127
0.205301 0.166317 -0.260875 76 0 153
-0.365580 -0.006888 0.029833 76 153 0
0.274736 -0.017707 0.312507 76 153 0
0.006564 0.494785 -0.324688 76 0 153
-0.122140 0.491033 -0.323929 76 0 153
-0.061538 0.352273 -0.297300 76 0 153
0.363990 -0.002503 -0.154600 76 153 0
-0.235281 0.230392 -0.273475 76 0 153
-0.138948 0.100011 -0.273464 76 0 153
-0.205789 0.191816 -0.292009 76 0 153
0.377755 -0.031678 0.258674 76 153 0
0.366692 -0.069402 0.082519 0 255 0
0.305031 0.016459 0.473153 76 153 0
-0.186788 0.007439 -0.175658 76 153 0
-0.363037 -0.158410 0.520859 0 127 127
0.388746 0.188510 -0.277232 76 0 153
-0.148491 0.330283 -0.293676 76 0 153
0.421864 -0.774137 -0.004734 153 76 0
-0.321764 0.334792 -0.294649 76 0 153
-0.389484 -0.786344 -0.049475 76 0 153
-0.362961 0.001611 0.200485 76 153 0
0.357194 -0.036149 0.484516 76 153 0
0.415036 -0.786151 -0.266709 153 76 0
-0.295225 0.563233 -0.337944 76 0 153
-0.235287 -0.020737 0.257443 76 153 0
0.284360 -0.023998 0.195241 76 153 0
0.028960 -0.007127 -0.139438 76 153 0
-0.362458 -0.066298 0.117354 127 127 0
-0.123981 0.056202 -0.227020 76 0 153
-0.378504 -0.482695 -0.273387 76 153 0
0.383799 -0.595844 0.504552 76 0 153
-0.305351 -0.037505 -0.022692 76 153 0
0.394781 -0.630760 0.522355 76 0 153
-0.335841 0.576490 -0.340595 76 0 153
0.070703 0.000989 0.521150 76 153 0
-0.064895 0.392411 -0.304773 76 0 153
-0.379934 -0.777728 0.416304 76 0 153
-0.050489 -0.026909 0.139689 76 153 0
0.064101 -0.010299 -0.037923 76 153 0
-0.217790 0.220342 -0.271294 76 0 153
0.050191 0.293670 -0.311835 76 0 153
0.277585 -0.066110 0.059106 127 0 127
-0.208799 0.563758 -0.364409 76 0 153
0.410139 -0.787934 0.232824 153 76 0
-0.336669 -0.074791 0.233621 127 127 0
0.356663 -0.068847 0.269979 0 255 0
-0.156076 -0.011226 -0.055624 76 153 0
-0.323167 -0.001582 -0.157217 76 153 0
0.183382 0.010735 0.363431 76 153 0
0.201469 0.600187 -0.371413 76 0 153
-0.367177 -0.370266 0.522347 0 127 127
-0.256738 -0.009155 -0.129682 76 153 0
0.299316 0.014716 0.439378 76 153 0
0.133696 -0.025959 0.157819 76 153 0
-0.197973 -0.016598 0.335712 76 153 0
0.186194 0.012326 0.393795 76 153 0
-0.050827 0.250769 -0.277298 76 0 153
0.390627 -0.772436 -0.224794 153 76 0
-0.042234 0.428504 -0.311780 76 0 153
-0.223442 0.006818 0.307777 76 153 0
-0.242472 0.004341 -0.215538 76 153 0
0.335827 -0.042416 0.141349 0 255 0
0.270823 0.289723 -0.284780 76 0 153
0.118337 -0.031065 -0.150637 76 153 0
-0.268593 0.515344 -0.354946 76 0 153
0.114097 -0.004887 -0.203690 76 153 0
0.367673 0.268751 -0.306860 76 0 153
0.139460 0.095275 -0.272286 76 0 153
0.198318 0.007896 0.521411 76 153 0
-0.078685 0.473692 -0.346899 76 0 153
0.068077 0.002536 0.213455 76 153 0
-0.344919 0.000904 0.176450 76 153 0
0.037481 0.553276 -0.362339 76 0 153
-0.328642 -0.036974 0.127344 127 127 0
-0.003203 0.007865 0.308652 76 153 0
0.083936 0.621326 -0.375506 76 0 153
-0.165262 -0.001829 0.123675 76 153 0
-0.037845 0.595930 -0.344401 76 0 153
0.051603 0.097585 -0.246321 76 0 153
-0.383780 -0.440765 0.521233 0 127 127
0.139043 0.409681 -0.334461 76 0 153
-0.399550 -0.568417 -0.299215 76 153 0
-0.344752 -0.307764 0.519415 0 127 127
0.293009 0.061039 -0.259612 76 0 153
0.332201 -0.036245 0.163322 0 255 0
0.370442 -0.283562 -0.213107 153 0 76
0.408472 -0.787882 0.104829 153 76 0
0.037730 -0.007763 -0.199380 76 153 0
-0.410128 -0.768428 0.470150 76 0 153
-0.050986 -0.062005 0.018733 127 0 127
-0.213919 0.485521 -0.322838 76 0 153
-0.060459 -0.002601 0.108937 76 153 0
-0.108653 0.345159 -0.321840 76 0 153
-0.127638 0.421363 -0.310391 76 0 153
-0.009799 0.008880 -0.178002 76 153 0
-0.276972 0.284216 -0.284730 76 0 153
0.118794 0.017736 0.497203 76 153 0
0.338808 -0.053882 -0.012711 0 255 0
0.385256 -0.423016 -0.236932 153 0 76
-0.035959 -0.012136 -0.073862 76 153 0
0.215118 -0.007849 0.502515 76 153 0
-0.090089 -0.012189 -0.075589 76 153 0
-0.388747 -0.786127 0.069984 76 0 153
0.124396 -0.009005 -0.013250 76 153 0
-0.112248 0.127446 -0.253203 76 0 153
0.204894 0.638769 -0.352642 76 0 153
0.070023 0.012354 0.394326 76 153 0
0.400633 -0.665145 -0.329298 153 0 76
-0.385448 -0.772291 0.084597 76 0 153
0.303921 0.013179 0.410061 76 153 0
0.346056 -0.243273 0.508471 76 0 153
-0.370392 -0.399085 0.522601 0 127 127
-0.334911 -0.070608 0.000705 127 127 0
0.301216 -0.011083 -0.052108 76 153 0
-0.163101 -0.015662 0.356125 76 153 0
0.159225 0.437317 -0.339805 76 0 153
0.116405 0.354207 -0.323573 76 0 153
-0.326738 0.045412 -0.250788 76 0 153
-0.265784 0.606994 -0.372724 76 0 153
0.349487 -0.001616 0.521650 76 153 0
0.081069 -0.005195 0.059455 76 153 0
0.021205 0.205288 -0.268368 76 0 153
-0.128818 0.502374 -0.352478 76 0 153
-0.032788 0.456753 -0.317248 76 0 153
-0.019231 0.145626 -0.256771 76 0 153
0.063352 -0.011198 -0.055093 76 153 0
-0.360945 -0.054581 0.243159 127 127 0
-0.153678 0.017934 -0.229780 76 0 153
-0.362646 0.275605 -0.282563 76 0 153
0.326426 0.008481 0.320409 76 153 0
-0.318739 0.005411 0.280940 76 153 0
-0.049001 0.167756 -0.287436 76 0 153
0.415424 -0.770225 -0.111083 153 76 0
0.206802 0.010827 0.365186 76 153 0
-0.375834 -0.613651 -0.295667 76 153 0
-0.380077 -0.615882 0.522283 0 127 127
-0.218773 0.399728 -0.332526 76 0 153
-0.356950 0.002475 0.222496 76 153 0
0.331992 -0.007902 0.026904 76 153 0
-0.128770 0.335965 -0.320117 76 0 153
-0.365016 0.578717 -0.352026 76 0 153
0.415204 -0.770187 -0.206579 153 76 0
0.284105 -0.005487 0.517360 76 153 0
-0.128724 0.007807 -0.219455 76 153 0
-0.366996 -0.009765 0.397308 76 153 0
0.290398 0.311602 -0.315396 76 0 153
0.052818 -0.004157 -0.204773 76 153 0
-0.394805 -0.788016 0.406424 76 0 153
-0.199321 -0.017296 0.320509 76 153 0
-0.365017 -0.394000 -0.237868 76 153 0
0.389662 -0.772387 0.202783 153 76 0
-0.062473 0.001559 0.192021 76 153 0
0.344605 -0.076174 -0.007285 0 255 0
-0.288882 0.655795 -0.374008 76 0 153
0.259840 0.268479 -0.280741 76 0 153
-0.348914 0.156829 -0.285312 76 0 153
0.055106 0.567434 -0.338760 76 0 153
0.396377 -0.457361 -0.247234 153 0 76
0.393900 -0.040447 -0.132069 76 153 0
0.328377 0.162630 -0.286440 76 0 153
-0.008333 0.323031 -0.291431 76 0 153
0.041845 0.137455 -0.255176 76 0 153
-0.205474 0.291915 -0.311481 76 0 153
0.098893 0.010127 0.351830 76 153 0
-0.311382 0.005174 -0.171764 76 153 0
-0.380660 -0.069208 -0.147236 127 127 0
0.400013 -0.337371 -0.211576 153 0 76
0.246669 0.017859 0.499494 76 153 0
0.205640 -0.010374 -0.039365 76 153 0
0.382709 0.234899 -0.275397 76 0 153
0.063894 -0.014103 -0.189379 76 153 0
-0.055603 0.006320 0.279195 76 153 0
0.312462 -0.024486 0.226307 76 153 0
-0.213820 0.003034 0.235572 76 153 0
0.376933 -0.254557 -0.185833 153 0 76
0.148143 -0.060731 0.017824 127 0 127
-0.221395 -0.003423 0.093253 76 153 0
-0.356767 -0.103650 -0.125879 127 127 0
-0.368123 -0.024949 0.376886 76 153 0
0.108218 0.250220 -0.277191 76 0 153
0.151641 -0.071959 0.058096 127 0 127
0.385095 -0.344980 0.520821 76 0 153
-0.032379 0.150173 -0.257654 76 0 153
-0.376208 0.350737 -0.309651 76 0 153
0.371062 -0.256607 0.521911 76 0 153
0.096115 0.062443 -0.260301 76 0 153
-0.108390 0.017243 0.488030 76 153 0
0.410622 -0.787806 -0.036493 153 76 0
0.363788 -0.308578 -0.209517 153 0 76
0.020275 0.011956 0.520796 76 153 0
0.195044 0.654822 -0.376825 76 0 153
0.409592 -0.787907 0.414422 153 76 0
-0.337633 -0.004900 -0.147992 76 153 0
-0.206588 -0.042446 -0.000947 76 153 0
0.089400 -0.008779 -0.008937 76 153 0
-0.312764 0.389099 -0.304541 76 0 153
-0.080241 -0.001141 0.136801 76 153 0
-0.402148 -0.570513 0.512221 0 127 127
-0.196056 0.141008 -0.282205 76 0 153
0.376536 -0.056506 0.088261 76 153 0
-0.128900 -0.017258 0.321245 76 153 0
-0.104266 0.237729 -0.274694 76 0 153
0.261622 -0.012454 -0.084166 76 153 0
-0.146466 0.009116 0.337546 76 153 0
0.171263 0.072922 -0.236362 76 0 153
0.161340 -0.017060 0.325215 76 153 0
0.270595 -0.050096 0.410755 0 127 127
-0.177911 0.016124 0.466749 76 153 0
-0.020060 -0.023806 0.198903 76 153 0
-0.372286 0.147661 -0.283334 76 0 153
-0.008292 0.012162 0.390667 76 153 0
-0.139071 -0.016862 0.329681 76 153 0
-0.106958 -0.008165 -0.134848 76 153 0
0.350230 0.000576 0.189370 76 153 0
-0.292528 0.645189 -0.380079 76 0 153
-0.168517 -0.030122 0.370454 0 127 127
0.235436 0.076045 -0.265998 76 0 153
0.076907 0.176985 -0.289216 76 0 153
-0.409145 -0.787447 -0.020913 76 0 153
-0.262998 -0.041995 0.412513 0 127 127
-0.075212 0.223260 -0.271861 76 0 153
0.333720 0.111193 -0.249849 76 0 153
0.298082 -0.010582 0.452300 76 153 0
-0.345389 -0.085840 -0.143211 127 127 0
0.383798 -0.416011 0.505075 76 0 153
0.223329 -0.000036 -0.161054 76 153 0
0.402930 -0.769967 -0.154814 153 76 0
0.245544 -0.020836 0.255561 76 153 0
-0.040971 0.394437 -0.331497 76 0 153
0.172043 0.205441 -0.294658 76 0 153
-0.091185 0.457274 -0.317349 76 0 153
-0.357545 -0.096596 -0.082618 127 127 0
-0.320255 -0.028173 0.342660 76 153 0
-0.177950 -0.058795 0.389432 0 127 127
0.352069 -0.058487 0.410549 0 255 0
0.052744 -0.019272 0.285248 76 153 0
0.048947 0.002709 0.213363 76 153 0
-0.190862 0.274275 -0.282188 76 0 153
0.060325 -0.037307 -0.118990 76 153 0
0.422945 -0.778004 0.476989 153 76 0
0.055831 0.485101 -0.322757 76 0 153
0.404700 -0.787807 -0.199107 153 76 0
0.222121 0.341302 -0.294896 76 0 153
0.368734 -0.056490 0.516086 0 255 0
0.016599 0.360713 -0.298922 76 0 153
0.099506 -0.008037 0.005229 76 153 0
0.348837 -0.060427 0.464641 0 255 0
-0.130861 -0.023659 0.201709 76 153 0
0.392823 -0.785781 -0.177647 153 76 0
-0.304330 0.017393 0.516627 76 153 0
0.369144 -0.048956 0.244914 76 153 0
0.287017 -0.000383 0.172985 76 153 0
-0.002675 -0.057670 0.384148 0 127 127
0.287326 0.238452 -0.301177 76 0 153
-0.378985 -0.005829 -0.152406 76 153 0
0.213503 -0.075957 0.051822 127 0 127
-0.268836 -0.026481 0.417606 0 127 127
0.388658 -0.022889 0.002646 76 153 0
0.148826 -0.011867 -0.067848 76 153 0
0.196801 -0.009259 -0.018092 76 153 0
0.387396 -0.076749 -0.148697 0 255 0
0.175306 0.657232 -0.368952 76 0 153
0.092016 0.400387 -0.306854 76 0 153
-0.278123 0.527372 -0.331035 76 0 153
0.354374 0.635895 -0.352986 76 0 153
-0.362014 -0.440002 0.521163 0 127 127
0.202637 0.012140 0.390235 76 153 0
0.071108 -0.022090 0.231643 76 153 0
0.164817 -0.022185 0.229831 76 153 0
-0.359638 0.033804 -0.209618 76 0 153
-0.383329 -0.470216 -0.270173 76 153 0
-0.170221 0.201703 -0.293932 76 0 153
0.211189 0.076963 -0.266335 76 0 153
-0.416459 -0.773390 0.296466 76 0 153
-0.015920 -0.058771 0.387568 0 127 127
0.202789 -0.027544 0.127570 76 153 0
0.379199 -0.051036 0.111745 76 153 0
-0.155091 -0.030171 0.085296 76 153 0
0.056436 0.429793 -0.338352 76 0 153
-0.350240 0.050626 -0.223523 76 0 153
-0.277954 0.005967 0.291549 76 153 0
0.252415 0.007119 0.294422 76 153 0
-0.307250 -0.012421 -0.096649 76 153 0
-0.008172 0.254701 -0.278062 76 0 153
0.359729 -0.221260 -0.187726 153 0 76
0.306227 0.215371 -0.296615 76 0 153
0.162903 0.015112 0.446931 76 153 0
0.328912 0.012684 0.400609 76 153 0
0.102801 0.478556 -0.347849 76 0 153
-0.236455 0.041101 -0.248117 76 0 153
0.363510 -0.146555 -0.154835 153 0 76
0.000716 0.324081 -0.317822 76 0 153
-0.137000 -0.041927 0.412526 0 127 127
0.144144 0.070184 -0.263756 76 0 153
0.235485 0.016637 0.476546 76 153 0
-0.384135 -0.586120 -0.305284 76 153 0
-0.129337 0.229409 -0.273056 76 0 153
0.381374 -0.440727 0.522430 76 0 153
-0.337535 -0.071842 0.101921 127 127 0
0.386705 0.220745 -0.293091 76 0 153
-0.321567 0.017111 0.518343 76 153 0
0.014784 -0.025696 0.418089 0 127 127
-0.162385 -0.054294 0.409054 0 127 127
0.191720 -0.003399 0.112623 76 153 0
-0.365504 -0.427173 -0.246285 76 153 0
-0.037092 -0.028659 0.106293 76 153 0
0.020222 0.009406 0.338065 76 153 0
-0.113371 0.008661 0.324774 76 153 0
0.027740 0.331746 -0.319311 76 0 153
-0.176099 -0.038516 0.070580 127 0 127
-0.392458 -0.622798 0.521499 0 127 127
-0.357976 0.632009 -0.372582 76 0 153
-0.144800 0.651770 -0.379085 76 0 153
-0.362737 -0.069751 -0.148958 127 127 0
-0.380353 -0.029425 0.093077 76 153 0
-0.337205 -0.018192 0.522311 127 127 0
-0.203533 -0.024193 0.191524 76 153 0
-0.130173 0.529258 -0.357597 76 0 153
-0.366421 -0.066237 0.014228 127 127 0
-0.368344 -0.068239 -0.087762 127 127 0
-0.120182 0.146480 -0.256936 76 0 153
0.002744 -0.006414 0.036215 76 153 0
0.234085 -0.036903 -0.051013 76 153 0
0.129736 -0.012312 -0.079550 76 153 0
0.091557 -0.019138 0.287765 76 153 0
0.194412 0.400844 -0.332743 76 0 153
0.363987 -0.007555 0.033561 76 153 0
0.354756 -0.349601 0.517095 76 0 153
-0.200651 0.248609 -0.276878 76 0 153
0.278841 0.013569 0.417500 76 153 0
-0.144057 -0.012515 -0.091030 76 153 0
0.243496 0.010775 -0.180798 76 153 0
0.151499 0.522409 -0.330169 76 0 153
-0.098799 -0.019179 -0.180049 76 153 0
-0.351897 0.551472 -0.335817 76 0 153
-0.076228 0.001777 0.199329 76 153 0
0.365775 -0.337137 -0.212353 153 0 76
-0.140132 0.091820 -0.244345 76 0 153
0.033831 0.429267 -0.338250 76 0 153
-0.107945 -0.037110 -0.054968 76 153 0
-0.262787 0.558306 -0.363350 76 0 153
-0.307777 0.171474 -0.261884 76 0 153
-0.360351 -0.051253 0.302383 127 127 0
-0.106710 0.416835 -0.335848 76 0 153
-0.332317 -0.003771 0.086623 76 153 0
0.076637 -0.012132 -0.106323 76 153 0
0.009750 -0.005406 0.055435 76 153 0
0.195909 0.506314 -0.327989 76 0 153
-0.056895 0.491583 -0.324040 76 0 153
-0.401455 -0.604609 -0.310740 76 153 0
-0.003898 -0.037069 -0.054171 76 153 0
-0.382740 -0.330239 0.506732 0 127 127
0.329706 -0.051939 0.475089 0 255 0
0.344328 0.249015 -0.303230 76 0 153
0.252519 0.405607 -0.333669 76 0 153
0.141411 0.234243 -0.273995 76 0 153
-0.341036 -0.072785 -0.026100 127 127 0
-0.344623 -0.001593 0.128187 76 153 0
0.409647 -0.770007 0.064684 153 76 0
0.369167 0.449437 -0.318097 76 0 153
-0.080954 0.113119 -0.276497 76 0 153
0.086304 -0.029558 0.087455 76 153 0
-0.378164 0.314954 -0.304088 76 0 153
0.250386 0.655695 -0.358154 76 0 153
-0.388655 -0.786096 0.051995 76 0 153
0.389466 -0.015080 -0.070383 76 153 0
0.305443 0.004812 0.250399 76 153 0
0.201381 0.036160 -0.244642 76 0 153
-0.384593 0.174704 -0.278917 76 0 153
0.035677 0.017795 0.498310 76 153 0
-0.385238 -0.016873 -0.059486 76 153 0
-0.123233 0.162270 -0.260057 76 0 153
-0.050506 -0.035235 0.371379 0 127 127
0.263100 0.587118 -0.368951 76 0 153
-0.358592 -0.226575 -0.193683 76 153 0
-0.383493 -0.773441 0.126733 76 0 153
0.153605 0.319954 -0.290706 76 0 153
0.016865 -0.048387 0.063298 127 0 127
0.367933 -0.529842 0.507449 76 0 153
0.189146 0.528183 -0.331696 76 0 153
-0.265906 0.397559 -0.332104 76 0 153
0.257060 0.410627 -0.309043 76 0 153
0.223150 -0.005846 0.052440 76 153 0
-0.408272 -0.787739 -0.245425 76 0 153
0.104011 -0.054745 0.013555 127 0 127
0.195911 -0.016507 0.357045 76 153 0
0.372653 0.191239 -0.265879 76 0 153
-0.356047 0.019714 -0.193847 76 153 0
0.190212 0.132288 -0.254157 76 0 153
-0.299064 -0.070144 0.019927 127 0 127
-0.357933 -0.076700 0.503015 127 127 0
0.184396 0.630908 -0.377416 76 0 153
0.147033 -0.038415 -0.105303 76 153 0
0.349907 0.352619 -0.323262 76 0 153
0.102586 0.420702 -0.310981 76 0 153
-0.318548 -0.078260 0.043417 127 0 127
0.376736 -0.023781 0.285015 76 153 0
0.157580 0.647552 -0.354455 76 0 153
0.053426 -0.036529 -0.043887 76 153 0
-0.187538 0.396650 -0.331927 76 0 153
0.346262 -0.067751 0.425104 0 255 0
0.102864 0.102097 -0.247525 76 0 153
0.311676 0.407533 -0.308309 76 0 153
-0.412896 -0.702765 0.515318 0 127 127
-0.248916 0.590117 -0.369517 76 0 153
0.018041 -0.003816 0.085755 76 153 0
0.122240 0.608608 -0.346821 76 0 153
0.027035 0.457869 -0.343803 76 0 153
0.332214 -0.068644 0.405625 0 255 0
0.159996 -0.038227 -0.107689 76 153 0
-0.382662 -0.179899 -0.182110 76 153 0
0.288795 -0.027094 0.136161 76 153 0
0.362828 -0.240172 -0.198020 153 0 76
-0.167421 0.121835 -0.278404 76 0 153
-0.377935 -0.383902 0.505015 0 127 127
-0.211420 0.656667 -0.371482 76 0 153
0.231784 -0.020271 0.266336 76 153 0
0.222989 0.503050 -0.352609 76 0 153
0.055539 -0.045692 0.065197 127 0 127
0.346060 -0.077550 0.271217 0 255 0
-0.183903 0.315220 -0.316099 76 0 153
0.124727 0.003990 0.234704 76 153 0
-0.151696 -0.002854 0.104111 76 153 0
0.392070 -0.307469 -0.220888 153 0 76
0.367885 -0.002269 0.471190 76 153 0
0.398095 -0.640657 0.505681 76 0 153
-0.261319 -0.024434 -0.168479 76 153 0
-0.339492 -0.062630 -0.109890 127 127 0
0.190064 0.509058 -0.353769 76 0 153
0.396305 -0.617985 0.522433 76 0 153
-0.059851 -0.076819 0.046934 127 0 127
0.144552 0.456309 -0.343498 76 0 153
-0.403249 -0.512832 -0.281878 76 153 0
-0.362087 0.559900 -0.339001 76 0 153
0.050414 0.241866 -0.301840 76 0 153
0.066756 -0.007125 -0.139445 76 153 0
-0.197834 -0.075856 0.024816 127 0 127
0.293553 -0.012219 -0.076544 76 153 0
-0.389107 -0.657609 0.504356 0 127 127
-0.256299 -0.010690 0.448916 76 153 0
-0.036672 0.486015 -0.349298 76 0 153
0.064910 0.399570 -0.332495 76 0 153
0.078449 0.233010 -0.273755 76 0 153
0.296278 -0.050776 0.410481 0 127 127
0.376376 -0.380267 0.522388 76 0 153
-0.381898 -0.775390 0.212607 76 0 153
0.363735 0.012605 0.415734 76 153 0
0.150067 0.657854 -0.362350 76 0 153
-0.272578 -0.038216 0.371522 0 127 127
0.421562 -0.776256 0.178660 153 76 0
0.376441 -0.185158 -0.183801 153 0 76
0.286021 -0.039612 0.413138 0 127 127
0.243363 -0.008414 0.492523 76 153 0
0.040599 -0.022310 0.227436 76 153 0
0.210615 0.512378 -0.329168 76 0 153
0.403339 -0.539207 0.508439 76 0 153
0.364230 0.066179 -0.261966 76 0 153
0.078371 0.521924 -0.356178 76 0 153
-0.037619 0.049990 -0.222641 76 0 153
-0.254882 -0.011292 -0.056895 76 153 0
-0.332764 0.602349 -0.345656 76 0 153
-0.359316 0.540131 -0.334032 76 0 153
0.391383 -0.404025 -0.249993 153 0 76
0.077015 0.008066 0.312491 76 153 0
0.110042 0.290352 -0.284902 76 0 153
0.158428 -0.077562 0.032304 127 0 127
0.363415 -0.011763 -0.050339 76 153 0
0.149686 0.646906 -0.380383 76 0 153
0.170036 0.468566 -0.320510 76 0 153
-0.216317 -0.038523 -0.096185 76 153 0
0.038049 0.013646 0.418970 76 153 0
-0.226005 0.019479 -0.231142 76 0 153
-0.154895 -0.038527 -0.097571 76 153 0
-0.132478 -0.012133 -0.106317 76 153 0
-0.124225 0.603974 -0.345950 76 0 153
0.373244 -0.065203 -0.012794 0 255 0
-0.096664 -0.037695 -0.114427 76 153 0
0.421353 -0.781414 0.344112 153 76 0
-0.339451 0.512226 -0.354361 76 0 153
0.130292 0.618615 -0.374979 76 0 153
-0.203636 -0.033033 -0.143832 76 153 0
0.385680 -0.776601 0.106363 153 76 0
-0.199705 0.147953 -0.257223 76 0 153
-0.081893 -0.006434 0.514209 76 153 0
0.368179 -0.226865 0.504857 76 0 153
-0.050632 0.368914 -0.300282 76 0 153
0.178566 -0.071513 0.020599 127 0 127
0.296949 0.051555 -0.224921 76 0 153
0.371126 -0.473112 0.504467 76 0 153
-0.259648 -0.049621 0.009901 127 0 127
0.039457 0.480991 -0.348322 76 0 153
-0.409580 -0.787275 -0.004715 76 0 153
0.327133 -0.032665 0.271756 0 255 0
0.236965 0.419297 -0.336323 76 0 153
-0.380102 -0.046508 0.093655 76 153 0
-0.392491 -0.592444 0.522118 0 127 127
0.227416 -0.016274 0.341648 76 153 0
-0.022489 0.008368 0.318255 76 153 0
-0.110731 0.514949 -0.328649 76 0 153
-0.260635 -0.008236 0.001421 76 153 0
-0.147212 -0.024392 0.187719 76 153 0
0.139734 0.013142 0.409337 76 153 0
-0.417970 -0.777671 -0.186708 76 0 153
0.304139 0.192152 -0.292075 76 0 153
0.385795 -0.776361 0.319204 153 76 0
-0.095242 -0.016278 0.426809 76 153 0
-0.188564 0.088443 -0.243187 76 0 153
-0.413292 -0.737990 -0.329284 76 153 0
0.367511 -0.257607 0.504375 76 0 153
0.246216 0.378136 -0.302177 76 0 153
-0.295481 0.009287 0.354903 76 153 0
-0.065193 0.001569 -0.164576 76 153 0
0.060581 0.578312 -0.367239 76 0 153
-0.118497 0.011493 0.377883 76 153 0
0.194551 0.420060 -0.311007 76 0 153
-0.062972 -0.023086 0.212645 76 153 0
0.093980 -0.011040 -0.052088 76 153 0
0.371296 0.140045 -0.255790 76 0 153
-0.112338 -0.036680 0.071958 127 0 127
-0.366955 0.054044 -0.255775 76 0 153
0.342202 0.124702 -0.252731 76 0 153
0.213164 0.328392 -0.292386 76 0 153
-0.094607 0.323564 -0.317721 76 0 153
-0.342110 -0.006365 0.037145 76 153 0
0.371298 0.003848 0.274713 76 153 0
-0.393237 -0.787439 0.454178 76 0 153
0.388060 -0.351040 -0.214998 153 0 76
-0.414667 -0.772659 -0.025149 76 0 153
-0.181936 0.375179 -0.327684 76 0 153
0.000746 -0.009211 -0.129464 76 153 0
0.130571 -0.076909 0.045816 127 0 127
-0.178113 0.000286 0.520917 76 153 0
0.131557 0.015552 0.455485 76 153 0
0.348394 -0.083721 -0.096466 0 255 0
0.152455 -0.023526 0.204244 76 153 0
0.392828 -0.785766 0.344591 153 76 0
-0.022092 0.165765 -0.287049 76 0 153
-0.410359 -0.786979 0.151307 76 0 153
-0.392685 -0.787356 0.157998 76 0 153
0.177989 0.445548 -0.341400 76 0 153
0.057610 -0.005072 0.061799 76 153 0
0.302343 0.104863 -0.274599 76 0 153
-0.144587 0.011164 0.371613 76 153 0
0.146879 0.073758 -0.236730 76 0 153
-0.408649 -0.770473 0.026100 76 0 153
0.126007 0.381650 -0.302790 76 0 153
-0.080371 0.062729 -0.231021 76 0 153
0.032519 -0.058642 0.392373 0 127 127
-0.022114 0.032296 -0.207663 76 0 153
0.383609 -0.030904 0.124734 76 153 0
0.039111 -0.037168 0.071591 127 0 127
-0.383573 -0.747778 0.518786 0 127 127
0.109444 -0.004969 -0.147728 76 153 0
0.330252 0.041592 -0.248463 76 0 153
0.004833 0.531278 -0.331771 76 0 153
-0.332110 -0.050220 -0.087089 127 127 0
0.104320 0.008700 0.324587 76 153 0
0.197256 -0.075270 0.023821 127 0 127
0.203657 0.343524 -0.321534 76 0 153
0.325612 0.175242 -0.262616 76 0 153
-0.065425 0.199038 -0.293414 76 0 153
-0.333419 0.004838 0.269996 76 153 0
0.241560 0.515706 -0.355014 76 0 153
-0.366613 -0.348081 -0.214462 76 153 0
-0.341005 -0.065632 -0.090074 127 127 0
-0.153319 0.100837 -0.247217 76 0 153
-0.394302 -0.255203 -0.188041 76 153 0
-0.275740 0.183245 -0.290390 76 0 153
0.030233 0.404822 -0.333516 76 0 153
0.156372 -0.055647 0.406695 0 127 127
-0.408132 -0.751813 -0.320864 76 0 153
0.108226 0.012749 0.401846 76 153 0
0.259322 -0.012344 -0.101219 76 153 0
-0.326309 -0.036422 0.316402 127 127 0
-0.300717 -0.003395 -0.205773 76 153 0
-0.332704 -0.078777 0.498732 127 127 0
-0.306267 0.002555 0.224139 76 153 0
0.002975 -0.018181 0.303457 76 153 0
-0.049851 0.655418 -0.375101 76 0 153
0.391982 -0.027790 -0.063994 76 153 0
-0.081376 0.606563 -0.346436 76 0 153
-0.146619 0.515296 -0.328717 76 0 153
-0.333580 -0.065764 0.211048 127 127 0
0.391501 -0.785342 0.402845 153 76 0
-0.411661 -0.786462 0.086592 76 0 153
0.110728 -0.036851 -0.122419 76 153 0
0.045894 -0.005486 0.517379 76 153 0
0.366895 0.370621 -0.301028 76 0 153
0.377302 -0.399701 0.522418 76 0 153
0.365619 -0.351856 -0.224293 153 0 76
0.163725 -0.032157 -0.146540 76 153 0
-0.067614 -0.012323 -0.102470 76 153 0
0.156993 -0.007998 -0.135723 76 153 0
0.339189 0.060043 -0.230123 76 0 153
0.417632 -0.770386 -0.136922 153 76 0
0.039886 -0.008336 0.493998 76 153 0
-0.370233 -0.007525 0.321682 76 153 0
0.388355 0.156401 -0.280593 76 0 153
0.281335 -0.020541 0.261202 76 153 0
-0.091451 0.007748 0.306839 76 153 0
-0.181534 -0.038342 -0.083051 76 153 0
0.344130 0.007795 0.307350 76 153 0
-0.382446 -0.745433 0.499132 0 127 127
-0.053276 0.513014 -0.328273 76 0 153
0.316955 0.003676 0.229009 76 153 0
-0.031323 0.612030 -0.373700 76 0 153
-0.132998 0.029811 -0.239864 76 0 153
-0.054868 0.513275 -0.354559 76 0 153
-0.184754 -0.021981 0.233719 76 153 0
0.113644 -0.037538 -0.015678 76 153 0
-0.103709 0.559373 -0.337194 76 0 153
0.383674 0.183375 -0.266349 76 0 153
-0.291777 -0.012337 -0.101654 76 153 0
0.168689 -0.027097 -0.161774 76 153 0
0.086358 0.010540 -0.180366 76 153 0
-0.100219 -0.028427 0.110722 76 153 0
-0.242207 -0.009580 -0.024213 76 153 0
-0.180156 0.186495 -0.264805 76 0 153
0.242988 0.595954 -0.344407 76 0 153
0.331751 -0.008975 0.006180 76 153 0
-0.087643 0.011367 0.375495 76 153 0
0.308943 0.544668 -0.360593 76 0 153
0.415130 -0.739772 -0.344493 153 0 76
0.151670 -0.007368 0.510285 76 153 0
-0.333451 0.124320 -0.252576 76 0 153
0.099385 0.657269 -0.360418 76 0 153
-0.097761 0.189843 -0.291627 76 0 153
-0.103555 0.298386 -0.312788 76 0 153
0.378834 -0.682276 0.508008 76 0 153
-0.365772 -0.006257 0.042112 76 153 0
-0.387236 -0.785674 0.266650 76 0 153
-0.214185 0.501948 -0.352395 76 0 153
0.004330 0.554131 -0.362514 76 0 153
-0.008546 0.473779 -0.346916 76 0 153
0.394066 -0.771464 -0.165225 153 76 0
-0.301604 0.287210 -0.285312 76 0 153
0.348751 -0.018831 0.522470 0 255 0
-0.184603 -0.005612 0.051500 76 153 0
-0.329295 0.006170 -0.217605 76 153 0
-0.340554 0.645820 -0.354194 76 0 153
-0.169393 -0.017909 0.308644 76 153 0
-0.068742 -0.030634 -0.152123 76 153 0
-0.404072 -0.769784 0.430702 76 0 153
0.405007 -0.769944 -0.240850 153 76 0
-0.315092 0.587994 -0.369117 76 0 153
0.393704 -0.786042 0.222174 153 76 0
-0.301175 -0.022389 0.420810 0 127 127
0.345366 -0.063404 -0.086249 0 255 0
-0.049154 0.547246 -0.334837 76 0 153
-0.302726 -0.028668 0.369040 76 153 0
0.319049 -0.074822 0.057312 127 0 127
-0.058569 0.375656 -0.327781 76 0 153
-0.068012 -0.015437 0.428278 76 153 0
-0.093673 0.052464 -0.224519 76 0 153
0.319199 -0.024749 0.308926 76 153 0
0.391864 -0.451773 -0.264497 153 0 76
-0.024778 -0.028437 0.110535 76 153 0
-0.415172 -0.785064 0.008089 76 0 153
-0.301965 0.280562 -0.309273 76 0 153
0.262501 0.301474 -0.313413 76 0 153
-0.392620 -0.476176 0.519186 0 127 127
0.298810 -0.064617 0.019675 127 0 127
-0.381331 -0.775910 0.439020 76 0 153
0.252990 -0.010313 0.456360 76 153 0
0.078453 0.329823 -0.318938 76 0 153
0.175340 -0.016084 -0.186128 76 153 0
-0.200757 0.236515 -0.274448 76 0 153
0.071580 -0.009726 0.467555 76 153 0
-0.284368 -0.056351 0.061268 127 0 127
-0.359738 -0.407844 0.521225 0 127 127
-0.150088 0.347853 -0.322345 76 0 153
0.155139 -0.032646 0.414299 0 127 127
0.247129 0.193364 -0.292310 76 0 153
0.268930 0.015106 0.446822 76 153 0
0.233177 0.232551 -0.273666 76 0 153
0.038617 0.637631 -0.378739 76 0 153
-0.402689 -0.788009 -0.102969 76 0 153
0.169911 -0.009297 -0.018811 76 153 0
0.353128 -0.098101 -0.104660 0 255 0
-0.076643 -0.012410 -0.082754 76 153 0
0.399787 -0.371051 -0.222793 153 0 76
0.411302 -0.720407 -0.344485 153 0 76
0.164061 0.098549 -0.246652 76 0 153
0.352478 -0.055139 -0.144239 0 255 0
-0.404969 -0.788004 -0.032638 76 0 153
0.358948 0.440590 -0.340257 76 0 153
0.241165 0.061690 -0.230563 76 0 153
-0.214639 -0.016085 0.345120 76 153 0
0.016566 0.397593 -0.332111 76 0 153
0.265220 -0.018109 0.304826 76 153 0
-0.121896 -0.012199 -0.075906 76 153 0
-0.098776 0.427947 -0.337995 76 0 153
-0.227562 0.004433 0.262259 76 153 0
-0.261105 -0.018258 0.302157 76 153 0
0.132147 0.558156 -0.363321 76 0 153
0.130830 -0.037610 -0.064531 76 153 0
-0.012086 -0.026609 0.145414 76 153 0
0.149716 0.008938 0.329127 76 153 0
0.298955 0.442061 -0.340722 76 0 153
0.030660 0.315518 -0.316157 76 0 153
-0.390374 -0.451792 -0.264542 76 153 0
0.195695 0.177934 -0.263140 76 0 153
-0.335115 -0.073487 0.186612 127 127 0
0.239376 0.025619 -0.200603 76 153 0
0.198473 0.018172 0.511363 76 153 0
-0.070881 0.420157 -0.310156 76 0 153
0.085197 0.194606 -0.292552 76 0 153
0.143619 -0.036746 -0.048028 76 153 0
-0.331511 0.327592 -0.293249 76 0 153
0.144083 -0.000272 0.175096 76 153 0
0.130998 0.093974 -0.245084 76 0 153
-0.362200 -0.083545 -0.153061 127 127 0
0.078025 -0.041924 0.412527 0 127 127
-0.176589 -0.049493 0.009810 127 0 127
0.389814 0.070847 -0.261327 76 0 153
-0.363290 0.171353 -0.288116 76 0 153
-0.346160 -0.054517 0.453762 127 127 0
0.358378 0.257869 -0.304903 76 0 153
0.331072 -0.046265 -0.073411 76 153 0
-0.335659 -0.068238 0.156034 127 127 0
0.292865 -0.032343 0.080734 76 153 0
-0.388570 -0.126576 -0.162203 76 153 0
0.264751 0.010906 0.366700 76 153 0
0.279870 0.012282 0.392953 76 153 0
0.332340 -0.037979 0.208918 0 255 0
0.303828 0.011902 0.385703 76 153 0
-0.251269 -0.005818 -0.144467 76 153 0
-0.235882 0.319470 -0.291621 76 0 153
0.143737 0.172594 -0.288376 76 0 153
0.020133 0.137613 -0.281514 76 0 153
0.130698 0.010797 0.364613 76 153 0
0.018741 0.163776 -0.286662 76 0 153
-0.096150 0.014488 -0.186204 76 153 0
0.172029 0.489892 -0.324718 76 0 153
-0.387212 -0.344819 -0.232178 76 153 0
0.196452 0.007632 -0.176027 76 153 0
0.062848 -0.055661 0.406665 0 127 127
0.038275 0.010911 -0.222773 76 0 153
-0.352328 -0.009027 -0.013645 76 153 0
0.046755 -0.037743 -0.067076 76 153 0
0.062753 -0.037725 -0.066730 76 153 0
0.324573 0.427642 -0.312370 76 0 153
-0.091035 0.431741 -0.312407 76 0 153
-0.247686 -0.017120 0.323956 76 153 0
-0.369390 -0.033742 0.320360 76 153 0
-0.039527 0.354532 -0.297699 76 0 153
0.159646 0.137062 -0.255098 76 0 153
-0.271756 0.568597 -0.338991 76 0 153
0.089680 0.059940 -0.229702 76 0 153
0.244781 0.114813 -0.250502 76 0 153
0.089565 0.513181 -0.354541 76 0 153
-0.145387 -0.048679 0.373218 0 127 127
-0.388157 -0.771638 -0.067205 76 0 153
-0.151798 0.014572 0.436623 76 153 0
-0.103500 0.373666 -0.327376 76 0 153
0.182464 0.143606 -0.256378 76 0 153
0.363781 0.012537 0.429087 76 153 0
0.220464 -0.036082 -0.022905 76 153 0
0.248711 0.476088 -0.347368 76 0 153
0.274953 -0.038516 -0.093743 76 153 0
-0.388857 -0.753379 -0.341175 76 153 0
0.048950 0.164309 -0.286766 76 0 153
0.393730 -0.786057 -0.142791 153 76 0
0.371443 -0.134052 -0.168331 153 0 76
-0.134138 0.636895 -0.352274 76 0 153
-0.355343 -0.071278 0.172147 127 127 0
-0.004344 -0.002721 0.519917 76 153 0
0.061421 -0.013403 0.431832 76 153 0
0.310527 -0.007237 0.039581 76 153 0
-0.106260 0.633390 -0.351587 76 0 153
0.175341 0.293618 -0.311825 76 0 153
-0.068187 -0.015913 0.356606 76 153 0
0.019611 -0.030575 -0.152333 76 153 0
-0.323750 0.001305 0.183977 76 153 0
-0.033126 0.543153 -0.334042 76 0 153
-0.329527 0.014332 -0.186132 76 153 0
-0.215402 -0.030293 -0.153306 76 153 0
-0.170268 -0.018920 0.291844 76 153 0
-0.070038 0.361447 -0.324979 76 0 153
-0.256613 -0.007513 0.015239 76 153 0
0.307476 -0.039597 -0.008081 76 153 0
-0.416768 -0.774191 0.215977 76 0 153
0.009377 0.003468 -0.168679 76 153 0
-0.226763 -0.068089 0.020127 127 0 127
0.022708 0.002973 0.215314 76 153 0
0.251681 -0.026224 -0.164184 76 153 0
0.263829 0.636484 -0.352189 76 0 153
-0.054825 -0.021871 0.235816 76 153 0
0.207955 0.429056 -0.338209 76 0 153
0.133993 0.223206 -0.271850 76 0 153
-0.355902 0.138311 -0.255421 76 0 153
0.071257 0.107029 -0.275107 76 0 153
0.361784 0.104288 -0.248316 76 0 153
-0.414735 -0.748284 0.500724 0 127 127
0.175037 0.461409 -0.344497 76 0 153
0.035725 0.235767 -0.274297 76 0 153
-0.085415 0.558525 -0.337029 76 0 153
0.367077 -0.084305 -0.094218 0 255 0
0.378384 0.063512 -0.232114 76 0 153
0.384045 -0.778539 -0.203365 153 76 0
-0.212485 0.009709 -0.179103 76 153 0
-0.191253 -0.028981 0.416070 0 127 127
0.414021 -0.725062 0.520733 76 0 153
-0.172541 0.505648 -0.353114 76 0 153
0.197637 -0.059316 0.060574 127 0 127
0.295995 -0.032096 0.414415 0 127 127
-0.126873 0.571642 -0.365941 76 0 153
-0.150959 0.295288 -0.286000 76 0 153
0.039885 0.330703 -0.319109 76 0 153
-0.416717 -0.773750 0.403752 76 0 153
0.258188 0.519610 -0.355745 76 0 153
0.047880 -0.028392 0.111405 76 153 0
0.232740 -0.007464 0.508730 76 153 0
-0.117798 0.334634 -0.294197 76 0 153
-0.173802 0.625996 -0.376422 76 0 153
0.075581 0.000901 0.191029 76 153 0
-0.370406 0.417860 -0.318129 76 0 153
-0.116941 -0.070908 0.020520 127 0 127
0.227688 0.347999 -0.322373 76 0 153
-0.040976 -0.022862 0.216909 76 153 0
-0.383905 -0.784121 -0.010493 76 0 153
-0.269487 0.106251 -0.248538 76 0 153
0.279736 -0.042826 0.067348 127 0 127
-0.362968 0.215821 -0.271098 76 0 153
0.089723 0.582864 -0.341861 76 0 153
0.396607 -0.786756 -0.283264 153 76 0
-0.387579 -0.771599 0.271018 76 0 153
-0.005090 0.610563 -0.347187 76 0 153
-0.298666 0.011446 0.396007 76 153 0
0.235886 0.016558 -0.228532 76 0 153
0.403508 -0.769967 -0.175205 153 76 0
0.025793 -0.044393 0.412033 0 127 127
-0.157877 0.001936 0.204403 76 153 0
0.412212 -0.769994 -0.024723 153 76 0
0.119874 0.036878 -0.212175 76 0 153
-0.195173 0.516183 -0.355103 76 0 153
0.409988 -0.787905 0.332004 153 76 0
0.158863 -0.038222 -0.078898 76 153 0
-0.071864 0.015327 0.451054 76 153 0
0.334082 -0.111906 0.516741 76 0 153
-0.177064 0.009823 0.351269 76 153 0
0.386767 -0.701125 -0.337867 153 0 76
-0.043588 0.140953 -0.282194 76 0 153
0.138704 0.121716 -0.252008 76 0 153
0.282205 0.427229 -0.337856 76 0 153
-0.373223 -0.008066 0.167371 76 153 0
-0.017362 0.178393 -0.263229 76 0 153
0.194607 0.230677 -0.273302 76 0 153
0.344239 -0.081491 0.220304 0 255 0
0.223265 0.055074 -0.256364 76 0 153
-0.299854 -0.006579 0.033071 76 153 0
0.296586 -0.010038 -0.026851 76 153 0
-0.282524 -0.008162 -0.198781 76 153 0
-0.010498 -0.010582 0.451214 76 153 0
-0.285439 -0.011113 -0.053477 76 153 0
-0.351198 -0.082172 0.195841 127 127 0
0.341808 -0.082669 0.064869 0 255 0
0.391615 -0.063052 -0.119815 76 153 0
-0.344152 -0.007437 0.016694 76 153 0
0.381083 -0.708252 0.507412 76 0 153
0.411956 -0.787885 0.147608 153 76 0
0.305334 0.018956 -0.230681 76 0 153
-0.381060 -0.622156 -0.316031 76 153 0
-0.087953 0.014729 0.439633 76 153 0
-0.403258 -0.788012 0.074737 76 0 153
-0.062270 -0.041455 0.068376 127 0 127
-0.068414 -0.058457 0.395912 0 127 127
-0.255031 -0.036407 -0.041543 76 153 0
-0.191634 -0.030064 -0.154092 76 153 0
0.054151 -0.012508 -0.091435 76 153 0
0.377521 -0.243051 0.519716 76 0 153
0.199046 0.005874 0.270661 76 153 0
-0.318345 -0.028890 0.202502 76 153 0
-0.165503 0.190552 -0.291764 76 0 153
0.053895 0.524579 -0.356687 76 0 153
-0.377097 -0.708909 -0.332373 76 153 0
-0.408592 -0.770109 0.314773 76 0 153
0.084000 -0.046326 0.005261 76 153 0
0.286108 0.207249 -0.268750 76 0 153
0.391161 -0.146968 -0.156289 153 0 76
-0.280718 -0.008090 0.498507 76 153 0
0.219588 0.005197 0.257746 76 153 0
-0.416820 -0.783244 0.235963 76 0 153
-0.060076 0.403543 -0.333268 76 0 153
-0.408644 -0.787652 0.174546 76 0 153
-0.405848 -0.788013 0.386735 76 0 153
0.192944 0.059766 -0.258919 76 0 153
-0.066511 0.149692 -0.283924 76 0 153
-0.350921 0.007713 0.318643 76 153 0
0.326457 0.283991 -0.283665 76 0 153
0.135227 0.328950 -0.292494 76 0 153
-0.337466 -0.002686 0.107313 76 153 0
-0.086165 0.428123 -0.338029 76 0 153
-0.330846 -0.084977 0.520893 0 127 127
-0.341596 0.031987 -0.208010 76 0 153
-0.036743 -0.000600 0.147134 76 153 0
0.349019 -0.090535 -0.048333 0 255 0
0.037206 0.152297 -0.284431 76 0 153
-0.387496 -0.408363 -0.251401 76 153 0
-0.236566 0.005556 0.283696 76 153 0
0.394296 -0.786292 -0.267162 153 76 0
0.209124 0.260934 -0.305507 76 0 153
-0.243536 0.006549 0.302647 76 153 0
0.367494 -0.001272 0.152222 76 153 0
-0.006579 -0.021787 -0.174732 76 153 0
-0.371264 -0.004944 -0.203411 76 153 0
-0.395316 -0.788037 0.118710 76 0 153
-0.165793 -0.006089 -0.201887 76 153 0
-0.219522 -0.027862 0.121518 76 153 0
-0.035696 -0.001648 0.127129 76 153 0
0.145205 0.627055 -0.350351 76 0 153
-0.221178 0.254306 -0.278401 76 0 153
-0.411310 -0.786499 -0.165417 76 0 153
-0.150325 0.006337 0.296174 76 153 0
-0.249990 0.411003 -0.308375 76 0 153
0.021510 0.007008 0.292300 76 153 0
0.015083 -0.076918 0.045710 127 0 127
-0.113347 -0.049675 0.009940 127 0 127
0.018340 -0.036341 -0.040307 76 153 0
0.131073 -0.054812 0.376998 0 127 127
0.025126 0.074908 -0.237327 76 0 153
0.335037 -0.053952 0.297321 0 255 0
-0.395196 -0.769643 0.443681 76 0 153
0.395111 -0.759870 0.490003 76 0 153
-0.099453 -0.029151 0.096245 76 153 0
0.068226 -0.011341 -0.114998 76 153 0
0.255413 -0.019966 0.272178 76 153 0
0.396035 -0.786763 -0.036566 153 76 0
0.261153 0.434312 -0.313960 76 0 153
0.368364 0.236253 -0.300703 76 0 153
0.023467 0.011739 0.382593 76 153 0
-0.033213 0.519136 -0.355656 76 0 153
-0.143309 -0.006194 0.040402 76 153 0
-0.326952 -0.036491 0.223557 127 127 0
-0.174562 -0.000854 0.142290 76 153 0
-0.048029 -0.016026 0.346184 76 153 0
0.076291 0.095630 -0.245651 76 0 153
-0.363371 -0.083886 -0.105898 127 127 0
-0.246882 0.056535 -0.227224 76 0 153
0.209895 0.016129 0.466836 76 153 0
-0.016957 0.133129 -0.280601 76 0 153
0.269010 0.412182 -0.309338 76 0 153
-0.236888 0.136638 -0.281316 76 0 153
-0.280651 -0.023549 0.203795 76 153 0
-0.254531 0.220321 -0.271536 76 0 153
0.212886 -0.057692 0.383611 0 127 127
0.411146 -0.769672 0.410679 153 76 0
0.229273 -0.073218 0.021072 127 0 127
0.083227 -0.001855 0.124844 76 153 0
0.379185 -0.482139 0.504351 76 0 153
0.212028 0.654525 -0.356275 76 0 153
-0.271090 -0.024887 0.178267 76 153 0
-0.115974 -0.003103 0.519790 76 153 0
-0.008393 0.098361 -0.246587 76 0 153
-0.108363 -0.002278 0.115105 76 153 0
0.379159 0.331181 -0.311944 76 0 153
-0.249459 0.183415 -0.264206 76 0 153
-0.020560 -0.022217 0.229220 76 153 0
0.382697 -0.010277 0.001642 76 153 0
-0.027340 -0.004011 0.082045 76 153 0
-0.066154 0.014293 0.431308 76 153 0
0.138310 -0.000304 -0.209830 76 153 0
-0.270881 0.400406 -0.306477 76 0 153
0.159251 -0.024969 0.176704 76 153 0
-0.389940 -0.276929 -0.211382 76 153 0
0.111910 0.317943 -0.316629 76 0 153
0.034292 -0.038564 -0.010584 76 153 0
0.172781 -0.017634 0.313891 76 153 0
-0.388144 0.092376 -0.260409 76 0 153
-0.138407 0.120866 -0.251822 76 0 153
-0.226471 -0.012874 -0.191398 76 153 0
-0.070301 -0.011368 -0.114700 76 153 0
0.157409 0.583145 -0.368178 76 0 153
-0.327868 -0.064928 0.354686 127 127 0
-0.126175 0.565434 -0.338372 76 0 153
-0.012737 -0.037375 -0.016488 76 153 0
-0.195104 -0.023390 0.206840 76 153 0
0.033748 0.022713 -0.197322 76 153 0
-0.390441 -0.786638 -0.109938 76 0 153
-0.318964 0.233283 -0.300172 76 0 153
0.024140 0.004654 0.247392 76 153 0
0.338413 0.283981 -0.283664 76 0 153
-0.127495 0.002434 0.220282 76 153 0
-0.392915 -0.448387 0.513687 0 127 127
-0.267276 0.041537 -0.248426 76 0 153
0.058244 -0.020044 0.270670 76 153 0
-0.327060 -0.045898 -0.116435 76 153 0
-0.238987 0.155487 -0.285051 76 0 153
0.247490 -0.026589 0.145793 76 153 0
-0.133817 -0.008141 0.497681 76 153 0
0.096344 -0.026770 -0.162774 76 153 0
-0.316568 0.143004 -0.282611 76 0 153
-0.074750 0.005572 0.270400 76 153 0
0.154729 -0.037706 -0.066369 76 153 0
0.302179 -0.008537 -0.132908 76 153 0
0.346166 -0.068192 -0.053184 0 255 0
-0.228149 0.312454 -0.315562 76 0 153
-0.067544 -0.048355 0.373018 0 127 127
-0.063385 -0.025425 0.168010 76 153 0
-0.283763 0.004899 0.521370 76 153 0
0.259695 0.140697 -0.282142 76 0 153
0.148240 -0.010444 -0.040706 76 153 0
-0.257228 0.110110 -0.275828 76 0 153
-0.287889 -0.019843 0.274314 76 153 0
-0.143017 0.485049 -0.322747 76 0 153
0.371687 -0.329363 0.522402 76 0 153
-0.295861 -0.034429 -0.137441 76 153 0
-0.122183 -0.058220 0.385858 0 127 127
0.370802 -0.065753 0.031898 0 255 0
-0.173988 0.457163 -0.317328 76 0 153
-0.218990 0.347125 -0.322209 76 0 153
-0.072439 -0.020203 0.267636 76 153 0
0.011283 -0.016139 0.344383 76 153 0
-0.205631 0.634876 -0.378217 76 0 153
0.117080 0.596369 -0.370695 76 0 153
-0.337971 -0.073112 0.370643 127 127 0
0.313472 -0.021658 0.359031 76 153 0
-0.414330 -0.772483 -0.052810 76 0 153
-0.139791 0.016249 0.469126 76 153 0
0.260851 0.166331 -0.287159 76 0 153
-0.157962 -0.011124 -0.117382 76 153 0
-0.098728 0.468363 -0.345857 76 0 153
0.235191 0.081465 -0.240256 76 0 153
0.345883 -0.074637 -0.028269 0 255 0
-0.361000 -0.025270 0.505836 76 153 0
0.090213 0.457583 -0.317935 76 0 153
-0.135880 0.595440 -0.344306 76 0 153
-0.330122 -0.046120 0.261013 127 127 0
-0.390982 -0.563475 0.522093 0 127 127
-0.343260 -0.079044 -0.081602 127 127 0
-0.097748 0.254416 -0.304280 76 0 153
-0.132064 -0.025684 0.163072 76 153 0
0.365751 -0.075003 0.011873 0 255 0
0.166716 0.011801 0.383765 76 153 0
-0.295431 0.109188 -0.275612 76 0 153
0.038957 0.282386 -0.283362 76 0 153
0.383725 0.047292 -0.251305 76 0 153
-0.362368 -0.068968 0.066490 127 127 0
-0.157513 0.556906 -0.363078 76 0 153
-0.017721 0.300686 -0.313254 76 0 153
0.394133 -0.405092 0.512032 76 0 153
0.310103 -0.010087 -0.024391 76 153 0
-0.299527 0.267962 -0.306832 76 0 153
0.016953 -0.013099 -0.191029 76 153 0
-0.294865 -0.008202 0.002085 76 153 0
0.335059 -0.010082 -0.016558 76 153 0
0.224098 0.442216 -0.315442 76 0 153
0.025144 -0.015762 0.427710 76 153 0
-0.416718 -0.771870 -0.321759 76 0 153
0.235828 0.322114 -0.291135 76 0 153
-0.261926 0.501214 -0.352252 76 0 153
-0.089094 0.016495 0.473830 76 153 0
-0.163595 0.005474 0.282140 76 153 0
-0.119126 0.472923 -0.320391 76 0 153
-0.068339 0.249819 -0.303386 76 0 153
-0.353350 -0.125394 -0.162104 76 153 0
0.305794 0.390960 -0.304648 76 0 153
0.264863 0.153945 -0.258386 76 0 153
0.350660 0.382725 -0.302983 76 0 153
-0.020364 0.435771 -0.339507 76 0 153
-0.338818 -0.080639 0.131330 127 127 0
0.282158 0.300032 -0.286784 76 0 153
0.133114 0.352760 -0.323292 76 0 153
-0.306497 0.089239 -0.270432 76 0 153
0.287588 0.003515 0.226820 76 153 0
0.035304 0.421481 -0.310867 76 0 153
-0.368538 0.159043 -0.285597 76 0 153
0.238613 0.014142 0.428422 76 153 0
0.062292 -0.000206 0.164976 76 153 0
-0.370228 -0.201319 -0.188854 76 153 0
-0.093087 0.474964 -0.320787 76 0 153
-0.399179 -0.580344 -0.302608 76 153 0
-0.123023 -0.027933 0.120161 76 153 0
-0.300611 0.507775 -0.327254 76 0 153
0.280772 0.173836 -0.288618 76 0 153
-0.173055 -0.008978 0.481806 76 153 0
-0.124102 0.393875 -0.305026 76 0 153
0.319955 -0.003571 -0.152281 76 153 0
-0.251922 0.395829 -0.305696 76 0 153
0.310196 -0.029596 0.096602 76 153 0
0.051091 0.432421 -0.313014 76 0 153
0.113765 -0.048859 0.063181 127 0 127
-0.362633 0.600913 -0.364273 76 0 153
-0.062890 0.049071 -0.221943 76 0 153
-0.382181 -0.022426 0.048692 76 153 0
0.413392 -0.787211 -0.223764 153 76 0
-0.372448 -0.167945 0.513453 0 127 127
-0.251891 -0.039161 -0.007621 76 153 0
-0.298370 0.575955 -0.366780 76 0 153
-0.076173 0.014281 -0.185906 76 153 0
0.019596 0.037953 -0.213144 76 0 153
-0.372250 0.239595 -0.275702 76 0 153
0.316890 0.349292 -0.322618 76 0 153
0.248780 0.575772 -0.340858 76 0 153
-0.199129 -0.057718 0.383386 0 127 127
0.358107 -0.085236 0.092929 0 255 0
-0.375233 -0.007953 0.104595 76 153 0
0.121295 0.232375 -0.299996 76 0 153
0.369475 -0.164502 -0.177395 153 0 76
0.202655 0.300827 -0.286938 76 0 153
0.012621 0.190062 -0.291668 76 0 153
-0.021911 0.003625 -0.168641 76 153 0
0.155142 0.017856 0.499447 76 153 0
-0.340317 -0.065887 -0.016504 127 127 0
-0.276777 -0.022429 0.225150 76 153 0
-0.219910 0.179902 -0.263523 76 0 153
-0.107761 -0.008112 0.498237 76 153 0
-0.191756 0.629871 -0.350901 76 0 153
-0.053430 0.282974 -0.309742 76 0 153
-0.094974 0.131361 -0.280256 76 0 153
-0.198121 0.012106 0.520752 76 153 0
0.388566 -0.773047 0.225650 153 76 0
-0.355985 -0.060704 0.272153 127 127 0
0.107880 0.513969 -0.354689 76 0 153
0.298127 0.000275 0.185558 76 153 0
0.100597 0.167684 -0.287422 76 0 153
0.278818 -0.037954 -0.111148 76 153 0
-0.329702 0.490486 -0.350167 76 0 153
-0.370743 -0.066924 -0.100961 127 127 0
0.137706 -0.037856 -0.014102 76 153 0
-0.299506 -0.057140 0.403390 0 127 127
0.364117 0.412660 -0.309307 76 0 153
0.105845 0.014109 -0.185660 76 153 0
0.108323 0.061236 -0.259719 76 0 153
-0.330512 -0.001096 0.137672 76 153 0
0.400247 -0.769965 -0.071377 153 76 0
-0.124994 -0.009414 -0.021054 76 153 0
0.221019 -0.012416 -0.096949 76 153 0
-0.373131 -0.006865 0.122623 76 153 0
0.032242 0.188714 -0.265236 76 0 153
0.321732 0.119608 -0.251548 76 0 153
-0.017160 -0.034216 0.414067 0 127 127
0.123968 0.416909 -0.335862 76 0 153
0.335892 -0.060135 0.284287 0 255 0
0.079550 -0.020737 0.257450 76 153 0
-0.047289 -0.056439 0.380319 0 127 127
0.134335 0.007953 0.310328 76 153 0
0.407150 -0.364411 -0.229221 153 0 76
-0.147584 -0.038136 -0.012709 76 153 0
-0.096912 0.137848 -0.255253 76 0 153
-0.384668 -0.143704 -0.154539 76 153 0
-0.409534 -0.770633 -0.263170 76 0 153
-0.065071 0.010947 0.367474 76 153 0
0.209331 -0.002543 0.129183 76 153 0
0.415279 -0.630706 -0.317247 153 0 76
-0.312817 0.173696 -0.288590 76 0 153
0.355859 0.165295 -0.286957 76 0 153
-0.330095 -0.039806 0.100835 127 127 0
0.099626 -0.016144 0.344309 76 153 0
0.215319 0.006180 0.276500 76 153 0
-0.224304 0.017989 0.504414 76 153 0
-0.061922 0.126287 -0.279270 76 0 153
-0.301654 0.491099 -0.323942 76 0 153
-0.082621 0.203322 -0.267993 76 0 153
-0.015483 0.203629 -0.294306 76 0 153
0.122203 0.058954 -0.229021 76 0 153
-0.352410 0.141193 -0.282243 76 0 153
0.218564 0.210191 -0.269321 76 0 153
0.386438 -0.775786 -0.279704 153 76 0
0.377934 -0.236400 -0.180138 153 0 76
0.355651 0.647869 -0.355278 76 0 153
0.146808 0.408616 -0.308423 76 0 153
0.376140 -0.498507 -0.262981 153 0 76
-0.221524 0.236192 -0.274443 76 0 153
-0.088586 0.034730 -0.210073 76 0 153
-0.269200 0.127443 -0.279494 76 0 153
0.361176 0.494215 -0.350616 76 0 153
-0.178027 -0.001677 0.126584 76 153 0
-0.041482 -0.035849 -0.031100 76 153 0
0.282315 0.365699 -0.325805 76 0 153
0.362152 -0.044225 0.357903 76 153 0
-0.012626 0.034531 -0.243497 76 0 153
-0.114571 -0.028409 0.111077 76 153 0
-0.294947 0.031318 -0.207382 76 0 153
0.414855 -0.787762 0.312134 153 76 0
-0.258373 0.017072 0.484816 76 153 0
-0.155729 0.424361 -0.310974 76 0 153
-0.257516 0.249361 -0.278042 76 0 153
-0.028921 -0.073078 0.056674 127 0 127
0.220074 -0.065979 0.019844 127 0 127
-0.187826 0.000229 0.163433 76 153 0
-0.303189 -0.027595 -0.160619 76 153 0
0.130717 0.276116 -0.308406 76 0 153
0.370789 -0.108272 0.519854 76 0 153
0.366148 -0.059408 0.165267 0 255 0
0.217648 -0.038055 -0.073137 76 153 0
0.078742 -0.034991 -0.134923 76 153 0
0.420698 -0.704143 -0.329403 153 0 76
-0.388460 -0.771338 0.378142 76 0 153
-0.098525 0.001384 0.186086 76 153 0
0.400353 -0.769965 -0.089230 153 76 0
-0.183927 0.107157 -0.275137 76 0 153
0.091163 0.237416 -0.274631 76 0 153
-0.369595 -0.565256 0.520345 0 127 127
0.135581 0.051003 -0.254097 76 0 153
-0.384550 0.016477 -0.193164 76 153 0
-0.233064 -0.000207 -0.160629 76 153 0
0.168001 0.010997 0.368430 76 153 0
0.303679 0.432560 -0.313461 76 0 153
-0.095573 0.232862 -0.300091 76 0 153
0.361481 -0.073336 0.141697 0 255 0
0.140377 0.337284 -0.320364 76 0 153
-0.360134 -0.201752 0.522349 0 127 127
-0.189861 0.062338 -0.230781 76 0 153
-0.239607 0.017368 -0.190876 76 153 0
0.244781 -0.013606 -0.190197 76 153 0
0.393301 -0.780698 0.491953 153 76 0
0.384519 -0.729327 0.505258 76 0 153
-0.290720 -0.037703 -0.114261 76 153 0
0.214581 -0.036506 0.072088 127 0 127
0.372234 0.388025 -0.305648 76 0 153
-0.352284 -0.058864 0.322631 127 127 0
-0.071392 -0.036025 -0.128633 76 153 0
