ply
format ascii 1.0
element vertex 1270
property float x
property float y
property float z
property uchar red
property uchar green
property uchar blue
end_header
-0.353547 -0.084310 0.134415 127 127 0
0.046311 0.214197 -0.272220 76 0 153
-0.046335 -0.035666 -0.067281 76 153 0
0.170197 -0.002869 -0.159829 76 153 0
0.182388 0.517566 -0.353306 76 0 153
0.370877 0.510720 -0.329858 76 0 153
-0.367346 -0.517566 0.506224 0 127 127
0.229670 0.533285 -0.334245 76 0 153
-0.191545 -0.066985 0.021638 127 0 127
-0.342375 0.357408 -0.322174 76 0 153
-0.237958 0.596693 -0.368687 76 0 153
-0.364236 0.018195 -0.195098 76 153 0
-0.334582 -0.065859 0.496118 127 127 0
0.318908 0.155713 -0.282969 76 0 153
-0.048563 -0.012081 -0.032084 76 153 0
0.373561 0.335878 -0.295872 76 0 153
0.142201 -0.018697 0.256522 76 153 0
0.333249 -0.046568 0.411402 0 127 127
-0.238611 0.034382 -0.241188 76 0 153
-0.155127 -0.004932 0.104338 76 153 0
0.027760 0.121775 -0.254255 76 0 153
-0.107390 -0.024074 0.153918 76 153 0
-0.316473 0.420554 -0.312332 76 0 153
0.010321 0.614054 -0.349944 76 0 153
0.133435 0.070482 -0.237989 76 0 153
0.265080 -0.002366 0.153298 76 153 0
0.057713 -0.034945 -0.053512 76 153 0
0.416292 -0.771597 -0.103304 153 76 0
0.353616 -0.023082 0.172845 76 153 0
-0.079622 0.617317 -0.372696 76 0 153
0.347164 0.007428 0.340171 76 153 0
0.373824 -0.185665 0.520698 76 0 153
-0.309131 -0.025334 0.129856 76 153 0
-0.282821 0.041790 -0.219610 76 0 153
0.105337 -0.034974 -0.054065 76 153 0
0.212939 0.010289 0.394760 76 153 0
0.239443 -0.018899 0.252666 76 153 0
0.141342 -0.013619 0.353410 76 153 0
-0.255904 0.119202 -0.275872 76 0 153
-0.210848 0.326889 -0.294125 76 0 153
0.109356 0.125316 -0.254943 76 0 153
-0.236196 0.539811 -0.357630 76 0 153
-0.045755 -0.004602 0.110639 76 153 0
0.175337 0.569915 -0.341365 76 0 153
-0.178761 0.012954 0.445621 76 153 0
0.373502 -0.036244 0.094547 76 153 0
0.243680 0.432157 -0.314587 76 0 153
-0.091803 0.351341 -0.320995 76 0 153
-0.074384 0.153427 -0.260408 76 0 153
0.185174 0.146795 -0.281236 76 0 153
0.108307 0.000437 0.206776 76 153 0
-0.061843 -0.016574 0.297013 76 153 0
-0.097507 0.256032 -0.280352 76 0 153
-0.202895 0.245629 -0.278330 76 0 153
0.358521 -0.008146 0.457841 76 153 0
0.131639 0.326111 -0.316091 76 0 153
0.147859 0.402151 -0.308755 76 0 153
-0.133242 -0.042772 0.056603 127 0 127
0.310968 0.265434 -0.304296 76 0 153
-0.316556 -0.015171 0.323775 76 153 0
0.083151 0.220107 -0.273369 76 0 153
-0.339760 -0.013433 0.356945 76 153 0
-0.374537 -0.567779 -0.282588 76 153 0
0.100608 0.384509 -0.327442 76 0 153
-0.184240 0.441841 -0.338586 76 0 153
-0.108792 -0.000603 -0.206189 76 153 0
0.340195 0.645703 -0.378213 76 0 153
-0.170672 0.159916 -0.283786 76 0 153
0.185569 0.192129 -0.290047 76 0 153
0.341925 0.521366 -0.354045 76 0 153
0.365599 -0.037153 0.353747 76 153 0
-0.198657 0.624749 -0.374140 76 0 153
0.055268 -0.009081 -0.142554 76 153 0
-0.289248 0.400599 -0.308453 76 0 153
-0.205409 -0.015770 0.312371 76 153 0
-0.005287 0.327229 -0.294191 76 0 153
0.292824 0.406249 -0.331668 76 0 153
0.264180 0.008593 -0.217959 76 153 0
-0.310101 0.252648 -0.301811 76 0 153
0.265666 -0.013513 -0.059398 76 153 0
-0.181052 0.377686 -0.326116 76 0 153
0.292536 -0.013673 -0.120330 76 153 0
0.297558 0.002874 0.253288 76 153 0
0.297861 -0.033813 -0.031926 76 153 0
0.314361 0.014488 0.474890 76 153 0
-0.088460 0.427344 -0.335769 76 0 153
0.015453 0.507523 -0.329237 76 0 153
-0.117620 0.268356 -0.304864 76 0 153
-0.001864 0.238105 -0.276867 76 0 153
0.300835 0.610442 -0.349242 76 0 153
0.397114 -0.400530 -0.231927 153 0 76
-0.039667 0.006515 0.322748 76 153 0
-0.261776 -0.009929 0.423815 76 153 0
0.391283 0.085790 -0.267649 76 0 153
-0.090215 -0.014949 -0.099659 76 153 0
0.385738 -0.772688 0.073428 153 76 0
-0.411577 -0.646534 -0.306443 76 153 0
0.070195 0.110247 -0.274131 76 0 153
-0.125004 -0.056119 0.406693 0 127 127
0.143264 -0.016921 0.290394 76 153 0
-0.162712 0.402378 -0.308799 76 0 153
0.062720 0.010511 0.399011 76 153 0
0.235732 0.180899 -0.287865 76 0 153
0.273974 0.474653 -0.322848 76 0 153
-0.029405 0.122672 -0.276546 76 0 153
-0.346000 0.276446 -0.306437 76 0 153
-0.133534 0.563895 -0.340194 76 0 153
-0.106795 -0.026771 0.102447 76 153 0
-0.339038 -0.082331 0.181688 127 127 0
-0.049385 0.403698 -0.331172 76 0 153
-0.198354 -0.005514 0.093228 76 153 0
0.104791 0.422539 -0.312718 76 0 153
-0.231768 0.451066 -0.318263 76 0 153
-0.163712 0.020260 -0.197741 76 153 0
0.242777 -0.056283 0.403572 0 127 127
0.084099 0.189423 -0.267404 76 0 153
0.343542 -0.217875 0.506613 76 0 153
-0.259183 0.322110 -0.293196 76 0 153
-0.200399 0.431008 -0.314364 76 0 153
-0.214578 0.157220 -0.261145 76 0 153
0.330827 0.279109 -0.284838 76 0 153
-0.127485 0.218988 -0.273151 76 0 153
-0.095028 -0.022144 0.398158 0 127 127
0.297188 -0.009828 0.425744 76 153 0
-0.368964 -0.005586 -0.152274 76 153 0
-0.244637 -0.014692 -0.109105 76 153 0
-0.416924 -0.775916 -0.032556 76 0 153
-0.212770 -0.009811 0.392744 76 153 0
0.051953 0.030864 -0.238835 76 0 153
-0.037247 -0.019268 0.245628 76 153 0
0.385570 -0.783496 -0.213573 153 76 0
-0.170682 0.303211 -0.311640 76 0 153
-0.013363 -0.017628 0.276910 76 153 0
0.175897 -0.070126 0.058036 127 0 127
-0.306522 -0.017440 0.280485 76 153 0
-0.358799 0.021894 -0.230667 76 0 153
0.262235 0.375647 -0.325720 76 0 153
0.276038 0.525569 -0.354862 76 0 153
0.378233 -0.000586 0.203262 76 153 0
-0.269544 -0.045533 0.022325 127 0 127
0.070542 -0.023337 0.375390 76 153 0
-0.303627 -0.036032 -0.074255 76 153 0
0.405453 -0.785944 -0.049168 153 76 0
0.190150 0.596253 -0.346484 76 0 153
0.051288 0.313102 -0.291445 76 0 153
0.381607 -0.029766 0.045311 76 153 0
0.222361 0.632165 -0.353465 76 0 153
0.002459 -0.012716 -0.044199 76 153 0
-0.328872 0.112622 -0.252476 76 0 153
0.061520 -0.017838 -0.178757 76 153 0
0.337974 0.569860 -0.363471 76 0 153
-0.013422 0.457146 -0.341561 76 0 153
-0.031216 -0.048026 0.056878 127 0 127
0.146561 -0.014634 -0.080789 76 153 0
0.053533 -0.022619 0.181678 76 153 0
-0.198701 0.031729 -0.239413 76 0 153
-0.042960 -0.006329 0.492492 76 153 0
0.421721 -0.781831 0.052353 153 76 0
0.345932 0.407342 -0.309764 76 0 153
-0.260666 -0.013735 -0.063639 76 153 0
-0.351660 -0.042705 -0.028729 127 127 0
0.206697 -0.010407 -0.000139 76 153 0
0.231820 0.005608 0.305456 76 153 0
-0.187927 -0.002146 -0.204215 76 153 0
-0.343123 0.182376 -0.266035 76 0 153
-0.216178 0.064860 -0.259222 76 0 153
-0.361101 -0.324028 -0.212784 76 153 0
0.311272 0.547915 -0.359205 76 0 153
0.344661 -0.163356 0.506224 76 0 153
-0.001201 0.033922 -0.240880 76 0 153
-0.152941 0.248746 -0.301053 76 0 153
0.379158 -0.033082 0.154872 76 153 0
-0.033180 0.243897 -0.277993 76 0 153
-0.139702 -0.018309 0.263924 76 153 0
-0.277286 0.269169 -0.282905 76 0 153
-0.292245 0.162653 -0.262201 76 0 153
-0.231243 -0.003555 0.130610 76 153 0
-0.151065 0.591686 -0.345596 76 0 153
0.279806 -0.056528 0.398894 0 127 127
0.040699 0.019241 -0.196437 76 153 0
-0.166898 0.488243 -0.325489 76 0 153
-0.303442 0.018148 -0.227188 76 0 153
-0.366359 -0.025770 0.294404 76 153 0
-0.179094 0.615013 -0.350131 76 0 153
0.319156 -0.022775 0.178708 76 153 0
0.173689 -0.023900 0.157234 76 153 0
-0.058321 -0.056466 0.021086 127 0 127
0.370897 -0.082679 -0.135650 0 255 0
0.417562 -0.771597 0.224937 153 76 0
-0.239904 -0.057518 0.379998 0 127 127
0.415555 -0.786035 0.371530 153 76 0
-0.303359 0.344932 -0.319749 76 0 153
-0.044270 0.208066 -0.271028 76 0 153
-0.203571 -0.036377 -0.107819 76 153 0
-0.274938 0.014598 -0.190494 76 153 0
0.350253 -0.064538 0.364711 0 255 0
-0.344367 0.657462 -0.358382 76 0 153
0.189540 -0.075891 0.029431 127 0 127
-0.239684 0.006198 0.316705 76 153 0
-0.415750 -0.755412 -0.339370 76 153 0
-0.099166 -0.074867 0.048968 127 0 127
-0.255274 -0.019331 0.244404 76 153 0
0.189332 -0.015060 -0.095568 76 153 0
-0.406114 -0.680074 0.520698 0 127 127
0.064267 0.466279 -0.343337 76 0 153
-0.386639 0.043037 -0.238482 76 0 153
-0.168710 0.283085 -0.285611 76 0 153
-0.294363 -0.019281 0.245365 76 153 0
0.239845 0.289045 -0.286769 76 0 153
0.081778 0.419997 -0.334341 76 0 153
-0.175308 0.543196 -0.358288 76 0 153
-0.119429 -0.009132 0.024191 76 153 0
-0.324029 0.630436 -0.353129 76 0 153
-0.116310 0.180778 -0.287841 76 0 153
-0.120162 -0.006071 0.497410 76 153 0
0.385823 0.218401 -0.289273 76 0 153
-0.338123 -0.017114 0.459563 127 127 0
0.382903 0.279705 -0.288257 76 0 153
0.314679 -0.004922 0.519364 76 153 0
0.364948 -0.090356 -0.083172 0 255 0
0.390793 0.020814 -0.198449 76 153 0
0.237667 0.127788 -0.255424 76 0 153
-0.310184 -0.000628 0.186468 76 153 0
0.382741 -0.041446 -0.004720 76 153 0
0.198157 -0.001555 0.520050 76 153 0
-0.090031 -0.014550 0.335643 76 153 0
0.366367 -0.015077 -0.094954 76 153 0
0.017432 0.422235 -0.334775 76 0 153
0.041104 -0.002637 0.148120 76 153 0
0.085397 0.013880 0.463295 76 153 0
-0.356341 -0.010717 -0.191662 76 153 0
-0.151183 0.106375 -0.273379 76 0 153
-0.355493 -0.025300 0.130502 76 153 0
-0.383962 -0.727603 -0.344754 76 153 0
0.052564 -0.020810 0.216187 76 153 0
-0.327221 -0.031618 0.009967 76 153 0
-0.069399 -0.032458 -0.006068 76 153 0
0.017147 0.001088 0.219211 76 153 0
0.371978 -0.028415 -0.152745 76 153 0
0.335681 0.074966 -0.240049 76 0 153
0.179147 0.171900 -0.263998 76 0 153
-0.365811 -0.199096 -0.186036 76 153 0
0.238679 -0.020466 0.222755 76 153 0
0.328670 -0.014544 -0.114552 76 153 0
-0.112580 0.126001 -0.255076 76 0 153
-0.133788 0.000388 -0.166991 76 153 0
0.116416 -0.022447 0.184966 76 153 0
-0.382928 -0.786071 -0.178413 76 0 153
0.008124 0.160737 -0.261828 76 0 153
-0.223110 0.244526 -0.300232 76 0 153
-0.341192 0.006628 0.324920 76 153 0
-0.219666 -0.007124 0.477325 76 153 0
-0.357002 -0.028708 0.065491 76 153 0
0.260482 -0.032494 -0.006757 76 153 0
0.165522 -0.049352 0.410230 0 127 127
0.116289 -0.012393 -0.038027 76 153 0
0.095074 -0.018466 -0.177619 76 153 0
-0.026889 0.026589 -0.205490 76 153 0
0.409961 -0.771597 0.317095 153 76 0
-0.125622 -0.016939 0.290060 76 153 0
-0.193512 0.580703 -0.343462 76 0 153
-0.148981 -0.011910 -0.129690 76 153 0
0.290651 0.000905 0.215715 76 153 0
0.305280 0.440546 -0.338335 76 0 153
-0.059916 0.014707 0.479061 76 153 0
-0.352902 -0.018511 0.260050 76 153 0
-0.272669 -0.036400 -0.106978 76 153 0
-0.018780 0.371001 -0.324817 76 0 153
0.125388 -0.005466 0.094146 76 153 0
-0.349090 -0.056617 0.225601 127 127 0
-0.149415 -0.032348 -0.003961 76 153 0
0.293581 0.005662 0.306490 76 153 0
0.359556 -0.031140 0.019085 76 153 0
0.047605 0.006967 0.331376 76 153 0
-0.119773 -0.014139 0.343475 76 153 0
0.017288 0.271215 -0.283303 76 0 153
-0.068243 0.183635 -0.266279 76 0 153
-0.229935 -0.031787 0.006745 76 153 0
-0.061803 -0.006956 0.065716 76 153 0
-0.291197 0.007194 0.335714 76 153 0
-0.063900 0.107752 -0.273646 76 0 153
0.346081 -0.040473 0.454204 0 255 0
-0.331301 0.205960 -0.292736 76 0 153
-0.220429 0.636312 -0.354271 76 0 153
0.242300 -0.008439 0.037417 76 153 0
-0.049388 -0.037264 0.375174 0 127 127
0.348619 -0.069790 0.421086 0 255 0
-0.376414 -0.504160 -0.278440 76 153 0
0.372623 -0.452090 0.506224 76 0 153
-0.132216 -0.014492 -0.078082 76 153 0
0.142797 0.577487 -0.342836 76 0 153
0.114585 -0.024460 0.146552 76 153 0
-0.129803 -0.009700 0.428172 76 153 0
-0.196610 -0.040421 0.049412 127 0 127
0.225224 0.477890 -0.345594 76 0 153
-0.080911 -0.003227 0.136876 76 153 0
-0.010230 0.006516 0.322780 76 153 0
-0.372041 0.370848 -0.324787 76 0 153
-0.343487 -0.038260 0.377208 127 127 0
-0.269267 0.083189 -0.266925 76 0 153
0.312765 0.027917 -0.206723 76 0 153
-0.092559 0.033058 -0.240302 76 0 153
0.363748 0.170011 -0.285748 76 0 153
-0.381334 0.141712 -0.280248 76 0 153
0.288717 0.008359 0.357944 76 153 0
-0.238126 0.108427 -0.251485 76 0 153
0.243840 -0.010401 -0.137699 76 153 0
-0.082064 0.004086 0.276400 76 153 0
0.129578 -0.036836 -0.089610 76 153 0
0.035671 -0.036815 -0.091697 76 153 0
0.088554 -0.006675 0.485909 76 153 0
-0.213789 -0.035572 -0.065486 76 153 0
-0.063814 -0.011716 -0.130717 76 153 0
-0.081411 0.563663 -0.362266 76 0 153
-0.378663 0.257172 -0.280574 76 0 153
0.350195 -0.024787 0.140307 0 255 0
-0.081620 -0.021159 0.209544 76 153 0
0.256000 0.001100 -0.168282 76 153 0
-0.353103 -0.075194 -0.148506 127 127 0
-0.130870 0.476553 -0.323217 76 0 153
-0.172985 -0.034867 -0.052024 76 153 0
0.025897 -0.009228 -0.142146 76 153 0
-0.023309 0.561190 -0.339669 76 0 153
0.341689 -0.006435 0.490493 76 153 0
-0.349913 -0.033366 0.426027 127 127 0
0.263771 0.627321 -0.352523 76 0 153
-0.067900 0.008112 0.353234 76 153 0
-0.201851 -0.033623 -0.028299 76 153 0
0.141004 0.000431 -0.167069 76 153 0
0.110306 0.254009 -0.279959 76 0 153
-0.062935 0.273637 -0.283774 76 0 153
-0.313953 0.483634 -0.324593 76 0 153
0.215318 -0.012360 -0.037391 76 153 0
0.074722 -0.011321 -0.017575 76 153 0
0.287596 -0.015166 -0.091673 76 153 0
-0.352616 -0.009526 0.016679 76 153 0
0.274494 -0.029141 0.057234 127 0 127
0.100350 -0.015066 0.325793 76 153 0
-0.023803 -0.019136 -0.176404 76 153 0
-0.284904 0.305983 -0.290061 76 0 153
0.389771 -0.058904 -0.061276 76 153 0
0.275404 -0.015600 0.315607 76 153 0
-0.088441 0.381477 -0.304736 76 0 153
0.372285 -0.269230 -0.192156 153 0 76
-0.334420 0.471766 -0.344403 76 0 153
0.107390 -0.041264 0.033329 127 0 127
-0.031679 0.053195 -0.253772 76 0 153
0.129939 0.245936 -0.300507 76 0 153
0.285333 0.321525 -0.315200 76 0 153
0.135400 0.497378 -0.327265 76 0 153
-0.044734 0.011536 0.418563 76 153 0
0.182835 0.009906 0.387454 76 153 0
0.350571 -0.013057 0.364126 76 153 0
-0.157526 -0.012127 -0.032954 76 153 0
-0.169846 -0.074719 0.051783 127 0 127
0.361827 -0.067514 -0.027071 0 255 0
-0.338931 -0.026782 0.102226 127 127 0
-0.249662 -0.028142 0.076294 76 153 0
-0.141578 -0.015256 0.322177 76 153 0
-0.354278 -0.021722 0.198785 76 153 0
0.112516 0.337276 -0.296144 76 0 153
0.083049 -0.024038 0.154593 76 153 0
-0.321398 0.554267 -0.338323 76 0 153
-0.127677 0.075967 -0.240508 76 0 153
0.245122 -0.010946 0.404407 0 127 127
-0.060793 0.044049 -0.221616 76 0 153
0.201067 0.111902 -0.252336 76 0 153
-0.132907 0.440140 -0.316139 76 0 153
-0.315626 -0.006827 -0.198223 76 153 0
0.367161 -0.035265 -0.059633 76 153 0
-0.270935 0.015441 0.493079 76 153 0
-0.063858 -0.011306 0.397539 0 127 127
-0.356934 -0.087895 0.506224 0 127 127
-0.178914 -0.014542 0.335802 76 153 0
-0.022714 0.420329 -0.312288 76 0 153
-0.265572 -0.054384 0.057211 127 0 127
0.258150 0.260613 -0.281242 76 0 153
0.184107 -0.011654 -0.023932 76 153 0
-0.156677 -0.008425 0.037682 76 153 0
-0.180344 0.000683 0.211484 76 153 0
0.356022 -0.016516 0.298126 76 153 0
-0.254025 0.496807 -0.327154 76 0 153
-0.209401 0.199781 -0.269418 76 0 153
0.012008 0.379985 -0.326563 76 0 153
0.372952 -0.316752 -0.221674 153 0 76
0.351504 -0.037771 0.065410 0 255 0
0.322230 0.329179 -0.316687 76 0 153
0.165786 0.287194 -0.286409 76 0 153
0.021139 -0.005891 0.500849 76 153 0
-0.131295 0.002497 0.246083 76 153 0
-0.168427 -0.046907 0.020585 127 0 127
-0.192908 0.123922 -0.254672 76 0 153
0.343980 -0.010907 -0.009669 76 153 0
0.390415 -0.706331 -0.324555 153 0 76
0.195654 0.320500 -0.315000 76 0 153
0.091249 0.529591 -0.355643 76 0 153
-0.184088 -0.024480 0.146179 76 153 0
-0.350274 0.298349 -0.288578 76 0 153
-0.137738 -0.002910 0.142914 76 153 0
-0.384142 -0.228090 -0.194818 76 153 0
0.282643 -0.073809 0.034581 127 0 127
0.194337 0.014603 0.477076 76 153 0
0.011811 0.199309 -0.269326 76 0 153
-0.132724 -0.011484 0.394126 76 153 0
-0.111574 -0.034365 -0.127391 76 153 0
0.217125 0.550025 -0.359615 76 0 153
-0.114949 0.334495 -0.295604 76 0 153
0.369463 -0.172347 -0.177934 153 0 76
0.341809 -0.048779 0.122402 0 255 0
-0.413495 -0.771597 -0.155116 76 0 153
-0.221308 0.508229 -0.351491 76 0 153
-0.060816 -0.016425 -0.181318 76 153 0
0.336172 -0.051205 0.321205 0 255 0
0.303796 -0.008379 0.453387 76 153 0
-0.406448 -0.786071 -0.211021 76 0 153
0.060237 0.501656 -0.328096 76 0 153
0.329682 0.049568 -0.251345 76 0 153
-0.218377 -0.019253 0.245910 76 153 0
-0.220510 0.004209 0.278755 76 153 0
0.165653 0.480312 -0.323948 76 0 153
0.052788 -0.009922 0.423941 76 153 0
-0.297013 -0.006908 -0.148599 76 153 0
-0.309049 -0.036532 -0.102132 76 153 0
0.096820 0.002352 0.243318 76 153 0
-0.283302 0.190698 -0.267652 76 0 153
-0.116877 0.615972 -0.372434 76 0 153
0.267372 0.487223 -0.347408 76 0 153
-0.243720 0.012126 0.429812 76 153 0
0.125325 0.286233 -0.286222 76 0 153
0.103138 0.084162 -0.244271 76 0 153
0.092455 0.158035 -0.261303 76 0 153
-0.403546 -0.702003 -0.323244 76 153 0
0.283762 0.136902 -0.279312 76 0 153
0.032998 0.003086 0.257324 76 153 0
0.171584 -0.008408 0.038014 76 153 0
-0.067692 0.078331 -0.265409 76 0 153
0.364641 0.125539 -0.254987 76 0 153
0.123020 -0.007010 0.479504 76 153 0
-0.221803 0.015510 -0.224737 76 0 153
-0.390245 -0.786071 -0.076384 76 0 153
0.341408 0.004349 0.281428 76 153 0
0.227174 -0.001010 0.179178 76 153 0
-0.366063 0.128591 -0.255580 76 0 153
-0.376612 0.195513 -0.268588 76 0 153
0.307940 -0.002933 0.142484 76 153 0
0.415682 -0.612507 -0.297150 153 0 76
-0.003059 0.475889 -0.323088 76 0 153
-0.097079 -0.043936 0.375523 0 127 127
0.382135 -0.629877 0.520698 76 0 153
-0.156602 0.327269 -0.316316 76 0 153
0.309446 0.572071 -0.341784 76 0 153
0.168154 0.248443 -0.300994 76 0 153
-0.080039 0.477642 -0.323429 76 0 153
0.277133 -0.036286 -0.111192 76 153 0
0.220410 0.013238 0.451049 76 153 0
-0.275380 0.569336 -0.341252 76 0 153
-0.245210 0.015257 0.519169 76 153 0
0.173099 0.436433 -0.337535 76 0 153
0.229819 0.270233 -0.305229 76 0 153
0.260280 0.538242 -0.335208 76 0 153
0.308345 0.009692 0.383373 76 153 0
-0.354490 0.446811 -0.317436 76 0 153
-0.072220 0.322333 -0.315357 76 0 153
-0.076507 -0.029177 0.056546 127 0 127
-0.269772 0.653559 -0.379627 76 0 153
0.285396 0.080701 -0.242682 76 0 153
-0.177734 -0.019088 0.249051 76 153 0
-0.337583 0.252676 -0.279700 76 0 153
-0.172445 -0.022356 0.394112 0 127 127
0.267244 0.016193 0.507418 76 153 0
0.004277 0.015224 0.488939 76 153 0
-0.015507 0.106918 -0.251065 76 0 153
0.328119 -0.021013 0.212326 0 255 0
0.073397 0.034308 -0.212660 76 0 153
0.124114 0.077751 -0.265142 76 0 153
-0.359454 -0.096876 -0.095718 127 127 0
-0.088441 -0.011828 -0.027256 76 153 0
-0.114358 0.012454 0.436087 76 153 0
-0.183658 -0.008160 -0.145116 76 153 0
0.245795 0.592047 -0.367784 76 0 153
-0.117405 -0.005900 0.085864 76 153 0
0.033378 0.434329 -0.315009 76 0 153
0.224931 -0.005335 0.096637 76 153 0
0.152586 -0.025683 0.123216 76 153 0
-0.346439 -0.067699 0.341799 127 127 0
0.368019 -0.036175 -0.115273 76 153 0
-0.033429 0.162641 -0.262199 76 0 153
0.068586 0.557140 -0.338881 76 0 153
0.296607 -0.008177 -0.196267 76 153 0
0.093307 0.631497 -0.353335 76 0 153
0.321508 -0.013053 -0.050631 76 153 0
-0.261181 0.468174 -0.343705 76 0 153
0.167604 0.094630 -0.247645 76 0 153
-0.138180 0.013314 0.452497 76 153 0
-0.041336 0.622005 -0.373607 76 0 153
0.062456 -0.004546 0.111706 76 153 0
0.056227 0.646289 -0.378327 76 0 153
0.363060 0.369411 -0.302391 76 0 153
-0.055551 -0.015171 -0.091486 76 153 0
0.151016 0.415953 -0.333555 76 0 153
-0.132265 0.008228 0.355442 76 153 0
0.044517 0.124974 -0.276994 76 0 153
-0.053174 -0.036155 -0.115990 76 153 0
0.300490 -0.040859 0.041043 127 0 127
-0.009897 -0.019863 0.234254 76 153 0
0.329846 -0.039130 0.518935 0 255 0
-0.363618 -0.032374 -0.004459 76 153 0
-0.237832 0.000041 0.199230 76 153 0
-0.287929 0.595229 -0.368402 76 0 153
-0.238367 0.423516 -0.312908 76 0 153
-0.196274 -0.002121 0.157974 76 153 0
0.265157 -0.009900 0.424364 76 153 0
-0.334452 0.031534 -0.210083 76 0 153
0.026626 -0.025312 0.130288 76 153 0
-0.212202 -0.055007 0.374292 0 127 127
0.000093 -0.006457 0.075236 76 153 0
-0.160094 0.194489 -0.268389 76 0 153
-0.112239 0.532943 -0.334178 76 0 153
0.324155 -0.016693 0.294745 0 255 0
-0.359452 -0.094110 -0.046824 127 127 0
0.335151 0.218324 -0.273022 76 0 153
0.354535 0.449968 -0.340166 76 0 153
0.293752 -0.022025 0.193008 76 153 0
-0.304068 -0.005903 0.500619 76 153 0
0.203236 0.249523 -0.301204 76 0 153
0.072594 -0.017320 0.282788 76 153 0
-0.368540 -0.035326 -0.122289 76 153 0
0.336612 -0.006986 0.065143 76 153 0
0.322382 0.315657 -0.291942 76 0 153
0.116456 -0.057388 0.382482 0 127 127
0.342991 0.189185 -0.289475 76 0 153
0.315570 -0.018366 0.262822 76 153 0
0.247563 0.571174 -0.341609 76 0 153
0.205232 0.065433 -0.259485 76 0 153
-0.286148 -0.031886 0.004848 76 153 0
0.218399 0.414602 -0.311175 76 0 153
-0.209274 0.011116 0.410544 76 153 0
-0.236898 0.074521 -0.239844 76 0 153
0.215651 0.364906 -0.301515 76 0 153
0.373529 0.002312 0.309184 76 153 0
0.331215 0.232464 -0.297888 76 0 153
-0.352994 -0.059208 0.097010 127 127 0
0.079417 -0.026460 0.108386 76 153 0
-0.166949 -0.006779 0.483910 76 153 0
-0.291223 0.443137 -0.316721 76 0 153
0.009649 -0.018548 -0.177470 76 153 0
-0.308937 -0.002620 0.148459 76 153 0
0.258166 0.200449 -0.291665 76 0 153
-0.256386 0.268890 -0.304968 76 0 153
-0.343087 -0.118102 0.520698 0 127 127
0.005364 -0.013177 0.361844 76 153 0
-0.147584 0.016600 0.519099 76 153 0
0.233317 -0.006665 0.486092 76 153 0
-0.246417 0.156547 -0.283131 76 0 153
0.177625 -0.009645 0.429240 76 153 0
0.266149 -0.013641 0.352985 76 153 0
-0.211021 0.458197 -0.341766 76 0 153
0.130137 0.204993 -0.292548 76 0 153
-0.063062 0.396151 -0.307588 76 0 153
0.022952 0.565066 -0.340422 76 0 153
0.214112 0.340662 -0.318919 76 0 153
-0.024780 0.500226 -0.327819 76 0 153
0.121856 0.299405 -0.310900 76 0 153
0.041917 -0.032820 0.407551 0 127 127
0.303377 0.229167 -0.297247 76 0 153
0.058744 0.604243 -0.348037 76 0 153
0.212464 -0.011011 -0.191130 76 153 0
0.177865 0.380056 -0.304460 76 0 153
0.348348 0.635252 -0.354065 76 0 153
0.037120 0.061286 -0.233146 76 0 153
-0.385240 -0.496627 0.506224 0 127 127
-0.112052 -0.041684 0.025312 127 0 127
0.303491 0.188699 -0.267264 76 0 153
-0.092304 -0.007425 0.471580 76 153 0
0.097049 -0.007116 0.062652 76 153 0
0.226686 -0.024554 0.144755 76 153 0
-0.032449 -0.021883 0.195725 76 153 0
0.342964 -0.000714 0.184826 76 153 0
0.067980 0.000191 0.202092 76 153 0
0.234582 0.100876 -0.271848 76 0 153
-0.311250 -0.062092 0.057615 127 0 127
-0.005329 0.196690 -0.290934 76 0 153
0.315018 -0.015051 -0.088738 76 153 0
-0.340899 0.078252 -0.241558 76 0 153
0.186628 0.034043 -0.212414 76 0 153
-0.331785 0.030125 -0.238313 76 0 153
0.112264 0.013399 0.519267 76 153 0
-0.388442 -0.282398 -0.196145 76 153 0
0.032953 -0.015278 0.321744 76 153 0
-0.408434 -0.771597 0.047295 76 0 153
0.132857 -0.020743 0.217472 76 153 0
0.343883 0.013965 0.464915 76 153 0
0.049761 0.409207 -0.310126 76 0 153
-0.352302 0.419455 -0.312118 76 0 153
0.254190 -0.028176 0.075650 76 153 0
-0.225926 -0.012149 -0.033366 76 153 0
0.284696 0.282025 -0.307521 76 0 153
0.155111 0.005432 0.302084 76 153 0
-0.106893 0.007634 -0.180123 76 153 0
0.055488 -0.019366 0.243745 76 153 0
0.388869 -0.524105 -0.269359 153 0 76
-0.004566 0.523518 -0.354463 76 0 153
0.409218 -0.771597 0.274294 153 76 0
0.065632 0.575181 -0.364505 76 0 153
0.035952 -0.007552 0.469161 76 153 0
0.263710 -0.006339 0.492316 76 153 0
0.173338 0.535410 -0.334658 76 0 153
0.094980 0.055762 -0.229451 76 0 153
-0.413469 -0.731660 0.520586 0 127 127
0.034680 0.359155 -0.322514 76 0 153
0.167184 0.002489 0.245937 76 153 0
-0.334803 0.001986 0.236339 76 153 0
0.081689 0.263579 -0.303936 76 0 153
-0.388645 -0.786071 -0.130151 76 0 153
-0.226085 0.231462 -0.275576 76 0 153
-0.171791 0.008126 0.353503 76 153 0
-0.172874 -0.023173 -0.167323 76 153 0
-0.247053 0.355680 -0.321839 76 0 153
-0.296167 0.039691 -0.244739 76 0 153
0.333520 -0.033488 -0.025712 76 153 0
-0.213107 0.000905 0.215717 76 153 0
-0.291610 -0.033600 -0.027852 76 153 0
-0.059392 0.452315 -0.318505 76 0 153
0.221767 0.390641 -0.328634 76 0 153
-0.024183 0.633662 -0.353756 76 0 153
-0.129376 0.230907 -0.297585 76 0 153
0.261516 -0.017719 0.275172 76 153 0
-0.285206 0.624805 -0.352034 76 0 153
-0.239382 -0.032515 0.407536 0 127 127
0.152139 0.602579 -0.347714 76 0 153
-0.222861 -0.022811 0.178000 76 153 0
0.253744 0.104014 -0.250257 76 0 153
-0.311982 -0.012882 0.367459 127 127 0
0.028107 -0.008966 0.442180 76 153 0
0.010685 0.010803 0.404570 76 153 0
0.305893 -0.025626 0.372752 0 127 127
0.325909 0.520015 -0.331665 76 0 153
-0.243657 -0.022344 -0.169630 76 153 0
-0.049875 0.226218 -0.296674 76 0 153
0.324421 -0.049639 0.020728 0 255 0
0.019873 -0.018090 0.268096 76 153 0
0.202165 0.008234 0.355558 76 153 0
0.255381 0.001644 0.229809 76 153 0
0.119592 0.149413 -0.281744 76 0 153
-0.098748 -0.005201 0.514029 76 153 0
0.373348 0.095433 -0.247868 76 0 153
0.130461 0.008693 0.364307 76 153 0
-0.122642 0.372236 -0.325057 76 0 153
-0.051759 0.350256 -0.320784 76 0 153
-0.300012 0.307614 -0.312496 76 0 153
-0.373321 -0.108438 -0.143452 76 153 0
0.010674 -0.031567 0.010942 76 153 0
-0.161404 -0.022699 0.180158 76 153 0
-0.307240 0.001591 0.228810 76 153 0
0.269928 0.421626 -0.334657 76 0 153
0.026264 -0.029045 0.059057 127 0 127
-0.254781 0.301532 -0.311313 76 0 153
0.132690 -0.010590 -0.003629 76 153 0
-0.352877 -0.255944 0.506224 0 127 127
0.320418 0.093537 -0.269805 76 0 153
0.200835 -0.034742 -0.049654 76 153 0
-0.099084 0.501529 -0.328072 76 0 153
0.165893 0.301109 -0.311231 76 0 153
-0.323097 -0.004946 0.104073 76 153 0
0.104562 -0.030734 -0.146296 76 153 0
-0.042391 0.306563 -0.290174 76 0 153
-0.324050 -0.013687 -0.120254 76 153 0
0.338236 0.115999 -0.275249 76 0 153
-0.138723 0.004212 0.278813 76 153 0
0.012965 -0.063376 0.055871 127 0 127
-0.080838 0.112674 -0.252486 76 0 153
0.095930 0.004007 0.274901 76 153 0
0.084777 -0.002529 -0.203724 76 153 0
0.359598 -0.404151 0.506224 76 0 153
0.051013 0.262340 -0.281578 76 0 153
0.171598 -0.034461 -0.044279 76 153 0
-0.271111 0.009510 0.379911 76 153 0
0.362477 -0.002741 -0.160185 76 153 0
-0.178373 0.467666 -0.343606 76 0 153
0.352670 -0.058717 0.268383 0 255 0
-0.096735 0.418110 -0.311857 76 0 153
-0.202502 0.282426 -0.307599 76 0 153
-0.010567 -0.014962 -0.099179 76 153 0
0.258904 -0.007292 0.059312 76 153 0
-0.369125 -0.046321 -0.097729 76 153 0
-0.013943 0.010098 0.391128 76 153 0
0.385274 -0.579519 0.520698 76 0 153
0.308276 -0.006363 0.491859 76 153 0
-0.170463 0.323778 -0.293520 76 0 153
0.317842 0.472099 -0.322351 76 0 153
-0.074148 0.244310 -0.300190 76 0 153
-0.013105 0.004882 0.291605 76 153 0
-0.199892 -0.009833 0.425641 76 153 0
0.166962 -0.011466 -0.132046 76 153 0
0.366381 0.240458 -0.299442 76 0 153
0.153210 -0.028531 0.068867 127 0 127
0.279674 -0.026621 0.105307 76 153 0
-0.273231 -0.020805 0.216280 76 153 0
0.074675 0.007104 0.333994 76 153 0
0.369363 -0.127430 0.506224 76 0 153
-0.374007 -0.144019 -0.169353 76 153 0
0.388636 -0.025674 -0.029996 76 153 0
0.186256 0.634023 -0.375943 76 0 153
-0.033268 0.012859 0.443813 76 153 0
0.361029 -0.071960 0.010382 0 255 0
-0.145998 -0.006539 0.073672 76 153 0
-0.078478 -0.000406 0.190692 76 153 0
0.326367 -0.045668 0.375614 0 127 127
-0.201842 0.009543 -0.183582 76 153 0
-0.382573 -0.786071 0.249458 76 0 153
0.225526 -0.020657 0.384207 0 127 127
-0.327460 0.010759 0.403736 76 153 0
-0.109746 -0.036670 -0.097052 76 153 0
0.152821 0.007500 0.341555 76 153 0
-0.147211 0.444254 -0.339056 76 0 153
0.350421 0.468955 -0.321740 76 0 153
-0.405146 -0.771597 0.371571 76 0 153
-0.117114 0.604744 -0.348135 76 0 153
-0.331789 0.232231 -0.297843 76 0 153
-0.358617 -0.068481 -0.075692 127 127 0
-0.066287 -0.008426 0.037662 76 153 0
0.422090 -0.784684 -0.240247 153 76 0
0.187704 -0.031942 0.003789 76 153 0
0.382340 -0.437679 -0.258303 153 0 76
0.355620 -0.082343 0.506224 76 0 153
0.070332 -0.028306 0.073173 76 153 0
0.041034 0.156829 -0.283186 76 0 153
-0.004513 -0.024687 0.142213 76 153 0
0.420344 -0.724276 -0.336208 153 0 76
0.106255 0.604976 -0.370297 76 0 153
0.074681 0.070674 -0.261892 76 0 153
0.361910 -0.307278 0.506224 76 0 153
-0.239760 0.404152 -0.331260 76 0 153
-0.125070 0.309329 -0.312829 76 0 153
-0.221122 0.547709 -0.337048 76 0 153
0.264941 0.647910 -0.378642 76 0 153
-0.190929 -0.004881 0.520130 76 153 0
0.163098 -0.020156 0.228685 76 153 0
0.233187 0.003621 0.267544 76 153 0
-0.290160 -0.075800 0.031168 127 0 127
0.130070 0.014796 -0.190748 76 153 0
0.275382 -0.037568 0.373378 0 127 127
0.384286 -0.014358 0.067509 76 153 0
0.386901 -0.363000 -0.220560 153 0 76
-0.416958 -0.781884 -0.006169 76 0 153
0.139842 0.558232 -0.361211 76 0 153
-0.330166 0.009134 0.372733 76 153 0
0.065027 -0.036171 -0.115420 76 153 0
0.123930 -0.021092 -0.172859 76 153 0
-0.294720 0.493368 -0.348602 76 0 153
-0.210984 0.589052 -0.367201 76 0 153
-0.138646 0.371118 -0.302722 76 0 153
0.102189 -0.012810 0.368842 76 153 0
-0.061044 0.140138 -0.279941 76 0 153
-0.187968 0.077783 -0.241342 76 0 153
-0.148802 0.005628 -0.214165 76 153 0
0.179077 -0.030291 -0.147530 76 153 0
0.026335 -0.022070 0.192150 76 153 0
-0.299345 -0.028430 0.070792 76 153 0
-0.272920 0.011205 0.412243 76 153 0
0.245062 0.077467 -0.265012 76 0 153
0.261170 0.234729 -0.276211 76 0 153
-0.355341 -0.067612 0.035135 127 127 0
0.078816 -0.020535 0.221450 76 153 0
0.285253 0.361766 -0.300905 76 0 153
0.159377 0.489808 -0.347910 76 0 153
-0.403134 -0.770993 -0.297125 76 0 153
-0.268484 0.138219 -0.257451 76 0 153
0.299764 0.653721 -0.378794 76 0 153
0.238578 0.047792 -0.224121 76 0 153
-0.385834 -0.542480 0.520698 0 127 127
0.353921 -0.021581 0.201476 76 153 0
-0.043402 -0.001978 -0.162308 76 153 0
-0.128976 0.122872 -0.276585 76 0 153
-0.157437 0.573914 -0.364259 76 0 153
-0.346851 -0.021825 0.520698 127 127 0
-0.148156 0.080183 -0.266088 76 0 153
-0.288771 -0.006385 -0.198789 76 153 0
-0.044130 0.480693 -0.346139 76 0 153
-0.017315 -0.028442 0.070572 76 153 0
0.154100 0.003034 -0.210845 76 153 0
0.315587 0.425747 -0.313341 76 0 153
0.304226 0.536464 -0.334862 76 0 153
0.207701 0.525019 -0.354755 76 0 153
-0.132125 0.048092 -0.224321 76 0 153
0.204936 -0.006649 0.071568 76 153 0
0.137018 0.361898 -0.323047 76 0 153
-0.298996 0.178974 -0.287490 76 0 153
-0.393353 -0.629260 0.520698 0 127 127
0.035929 -0.025767 -0.160109 76 153 0
0.071408 0.329875 -0.294706 76 0 153
0.124971 0.045753 -0.248794 76 0 153
0.337110 -0.074517 0.022032 0 255 0
0.055075 -0.006250 0.494000 76 153 0
0.084900 0.111507 -0.252259 76 0 153
-0.186821 -0.028422 0.070952 127 0 127
0.262875 -0.021640 0.200357 76 153 0
0.339797 -0.064572 0.226472 0 255 0
0.150914 -0.006056 0.082880 76 153 0
-0.111558 -0.012865 -0.047043 76 153 0
0.283676 0.602104 -0.369739 76 0 153
-0.016815 0.008504 0.360712 76 153 0
-0.117448 0.561335 -0.361814 76 0 153
-0.359952 0.401520 -0.330749 76 0 153
0.098875 0.012583 0.438548 76 153 0
0.170119 0.350463 -0.298707 76 0 153
0.032312 0.444808 -0.339163 76 0 153
-0.179989 -0.017432 0.280652 76 153 0
0.100799 0.169420 -0.285633 76 0 153
0.314371 -0.008872 0.029153 76 153 0
0.347178 -0.064932 0.471455 0 255 0
0.207218 0.004937 0.292649 76 153 0
0.354853 -0.019531 0.240597 76 153 0
-0.239096 -0.023939 0.156491 76 153 0
-0.211256 0.355605 -0.321824 76 0 153
-0.328082 -0.033491 0.409150 127 127 0
-0.218611 -0.053592 0.057170 127 0 127
0.355134 -0.058240 0.182496 0 255 0
0.105960 0.005934 -0.177043 76 153 0
-0.110517 0.655175 -0.357937 76 0 153
0.196765 -0.015259 0.322112 76 153 0
0.029001 0.005588 0.305069 76 153 0
0.158395 0.451002 -0.318250 76 0 153
0.095770 0.293331 -0.309719 76 0 153
-0.016522 -0.011711 -0.025010 76 153 0
-0.227611 -0.006403 0.076260 76 153 0
0.397828 -0.549284 0.520698 76 0 153
-0.355942 -0.209136 0.506224 0 127 127
-0.312171 0.300965 -0.289086 76 0 153
0.212763 -0.019161 0.247669 76 153 0
0.339889 0.009334 0.376553 76 153 0
-0.195145 -0.015077 -0.094957 76 153 0
-0.233803 -0.013886 -0.066521 76 153 0
-0.030602 -0.010371 0.415383 0 127 127
0.092402 0.469191 -0.343903 76 0 153
-0.120166 -0.001781 0.164467 76 153 0
0.042820 -0.008459 0.037032 76 153 0
0.359377 -0.044481 0.213953 0 255 0
-0.218346 0.015324 0.490844 76 153 0
0.387854 0.130246 -0.278019 76 0 153
-0.253343 0.062978 -0.258358 76 0 153
0.015753 0.283363 -0.307781 76 0 153
0.276970 0.161770 -0.284146 76 0 153
-0.207996 -0.013873 0.348567 76 153 0
-0.362105 -0.003165 0.461422 76 153 0
-0.263990 0.003326 0.261909 76 153 0
0.011124 0.020704 -0.198309 76 153 0
-0.406911 -0.771597 0.410365 76 0 153
-0.083967 0.298667 -0.310756 76 0 153
-0.011603 -0.034190 -0.039107 76 153 0
0.177685 0.607408 -0.370770 76 0 153
-0.008679 0.364801 -0.301495 76 0 153
0.357777 -0.002208 0.156307 76 153 0
-0.097467 -0.025491 0.126876 76 153 0
-0.117219 0.031677 -0.210217 76 0 153
0.304725 -0.074844 0.049406 127 0 127
-0.138809 0.528545 -0.333323 76 0 153
0.157468 -0.005501 0.508301 76 153 0
0.025989 0.038010 -0.243614 76 0 153
-0.035269 0.192737 -0.290166 76 0 153
0.157699 0.135755 -0.279089 76 0 153
-0.111696 -0.028279 0.073679 127 0 127
0.024407 0.254663 -0.302203 76 0 153
-0.130503 0.000954 0.216648 76 153 0
0.376214 -0.240793 0.520698 76 0 153
0.350761 0.160721 -0.261825 76 0 153
-0.222537 -0.030161 0.035879 76 153 0
-0.296951 -0.014554 -0.114185 76 153 0
-0.291283 0.003740 0.269800 76 153 0
0.376645 -0.014404 -0.184979 76 153 0
-0.251782 -0.009651 -0.140969 76 153 0
-0.181254 -0.010926 -0.010031 76 153 0
0.365793 -0.028679 0.508079 0 255 0
-0.292950 -0.022518 0.183598 76 153 0
-0.338504 0.147832 -0.259320 76 0 153
-0.122040 -0.012988 -0.187547 76 153 0
0.320330 0.489909 -0.347930 76 0 153
-0.373867 0.266256 -0.304456 76 0 153
0.181269 -0.007701 0.466332 76 153 0
0.227893 0.437121 -0.337669 76 0 153
-0.041728 0.007913 0.349440 76 153 0
0.310893 0.010047 -0.184496 76 153 0
0.224047 0.000559 0.209106 76 153 0
0.361598 -0.356431 0.506224 76 0 153
-0.378114 -0.454175 -0.263300 76 153 0
-0.175027 -0.015885 0.310178 76 153 0
-0.245146 -0.010339 0.001165 76 153 0
0.284981 -0.012446 -0.039048 76 153 0
0.006004 0.056231 -0.229765 76 0 153
-0.052341 0.002952 0.254768 76 153 0
0.074916 0.366576 -0.323957 76 0 153
0.002760 -0.009579 0.430490 76 153 0
0.106446 0.320197 -0.314941 76 0 153
0.261145 -0.009289 -0.194251 76 153 0
-0.128306 -0.004671 0.109318 76 153 0
-0.024213 0.448588 -0.317781 76 0 153
-0.385599 -0.012201 -0.128143 76 153 0
0.034058 0.008999 0.370152 76 153 0
0.019204 0.335453 -0.295790 76 0 153
-0.074283 0.488708 -0.347696 76 0 153
-0.387117 -0.615582 -0.297067 76 153 0
-0.069746 0.608406 -0.348847 76 0 153
-0.244753 0.375847 -0.303642 76 0 153
-0.009849 0.595323 -0.368420 76 0 153
0.040862 0.521108 -0.331877 76 0 153
0.147169 0.117817 -0.253486 76 0 153
-0.243215 0.613625 -0.349861 76 0 153
-0.363136 0.053939 -0.254207 76 0 153
-0.182014 0.148723 -0.259493 76 0 153
0.168899 -0.018242 0.265192 76 153 0
-0.160580 0.001786 0.232522 76 153 0
-0.324046 0.329717 -0.316792 76 0 153
-0.349251 -0.308057 0.520698 0 127 127
0.184247 -0.022666 0.180784 76 153 0
0.078644 -0.014801 -0.083970 76 153 0
-0.379282 -0.001159 -0.205478 76 153 0
0.019860 -0.021062 0.384247 0 127 127
-0.353006 0.168548 -0.285464 76 0 153
-0.339256 -0.075897 0.520698 127 127 0
-0.180763 0.649885 -0.379026 76 0 153
0.352150 -0.267254 0.506224 76 0 153
0.334472 -0.003515 -0.158032 76 153 0
0.105674 -0.014679 -0.109584 76 153 0
-0.258573 -0.004101 0.120198 76 153 0
0.002991 -0.056621 0.397125 0 127 127
-0.317991 0.015853 0.500941 76 153 0
0.123722 -0.011889 -0.129802 76 153 0
0.302219 -0.001370 0.172310 76 153 0
-0.088151 -0.026548 -0.157937 76 153 0
0.094956 -0.004654 0.109645 76 153 0
0.297535 -0.011201 0.399556 0 127 127
-0.248722 0.445924 -0.339380 76 0 153
-0.351097 -0.169956 0.506224 0 127 127
0.313080 -0.056619 0.397158 0 127 127
0.239524 -0.002531 0.150145 76 153 0
-0.358213 0.605553 -0.370409 76 0 153
0.292044 0.496848 -0.349279 76 0 153
0.035818 0.014951 -0.224218 76 0 153
-0.125239 -0.025311 0.130321 76 153 0
-0.198439 0.164848 -0.284745 76 0 153
-0.026990 0.024668 -0.233244 76 0 153
-0.378416 -0.054107 -0.142118 76 153 0
0.297152 -0.025196 0.132515 76 153 0
-0.390559 -0.763640 0.510334 0 127 127
0.395336 -0.786060 0.395942 153 76 0
-0.141290 -0.036059 -0.118397 76 153 0
-0.404394 -0.771597 0.172303 76 0 153
0.250665 -0.012421 -0.038565 76 153 0
-0.200018 0.310834 -0.313121 76 0 153
-0.289794 0.347097 -0.298053 76 0 153
0.187789 -0.030419 0.032841 76 153 0
0.257925 0.349884 -0.320712 76 0 153
0.222289 -0.013529 0.355134 76 153 0
0.056169 0.005426 0.301983 76 153 0
-0.338906 -0.036172 -0.115385 76 153 0
0.378890 -0.025985 0.117442 76 153 0
-0.295982 0.550873 -0.337663 76 0 153
0.168691 0.014628 0.477564 76 153 0
0.398665 -0.785988 -0.007304 153 76 0
-0.381185 -0.185280 -0.166728 76 153 0
0.008720 0.653719 -0.378807 76 0 153
0.140159 -0.033743 -0.130693 76 153 0
0.239260 -0.056486 0.021087 127 0 127
-0.155041 0.413033 -0.332987 76 0 153
0.264822 0.413274 -0.310917 76 0 153
0.180325 0.221505 -0.295758 76 0 153
0.088004 0.008552 0.361623 76 153 0
-0.384476 -0.033284 -0.041445 76 153 0
0.220138 0.231352 -0.275555 76 0 153
-0.182074 -0.008866 0.029262 76 153 0
0.131923 0.470916 -0.344238 76 0 153
-0.061683 -0.013814 -0.065141 76 153 0
-0.332421 0.385983 -0.305612 76 0 153
-0.390546 -0.523379 -0.269139 76 153 0
0.107048 -0.018097 0.267957 76 153 0
0.210577 -0.026027 0.116649 76 153 0
0.252003 -0.004385 0.114776 76 153 0
0.140613 0.538903 -0.335337 76 0 153
0.293375 -0.036108 -0.075713 76 153 0
0.130620 -0.002399 0.152665 76 153 0
-0.060702 0.518466 -0.353481 76 0 153
-0.065491 -0.007618 0.467911 76 153 0
-0.242461 -0.012009 0.384123 0 127 127
0.237407 -0.022151 0.190608 76 153 0
-0.083276 -0.019376 0.243561 76 153 0
-0.093377 0.054347 -0.254394 76 0 153
0.199421 0.448342 -0.339850 76 0 153
0.096665 0.547372 -0.336983 76 0 153
0.377520 -0.328824 0.506224 76 0 153
-0.286301 0.126300 -0.277252 76 0 153
0.397659 -0.747443 -0.327272 153 0 76
0.262940 0.008722 0.364870 76 153 0
-0.062610 0.434672 -0.337193 76 0 153
-0.264125 0.033835 -0.240822 76 0 153
-0.382318 -0.035906 -0.071855 76 153 0
0.123077 0.429114 -0.336113 76 0 153
-0.337818 0.004116 0.276971 76 153 0
0.126910 -0.014981 0.327411 76 153 0
-0.379838 -0.029921 0.042337 76 153 0
-0.052515 0.101557 -0.249573 76 0 153
-0.364712 -0.393613 0.506224 0 127 127
0.358638 0.592081 -0.367790 76 0 153
-0.041156 -0.008716 0.032134 76 153 0
0.000051 0.389843 -0.306362 76 0 153
-0.327982 -0.032272 -0.138503 76 153 0
-0.098298 -0.008390 0.038359 76 153 0
-0.401761 -0.786071 0.211805 76 0 153
0.315844 0.006928 0.330645 76 153 0
0.184642 0.653708 -0.357652 76 0 153
0.124889 0.177534 -0.287210 76 0 153
-0.248247 -0.017748 0.274621 76 153 0
0.214567 0.567454 -0.340886 76 0 153
0.366282 -0.096950 -0.114263 0 255 0
-0.116646 0.207362 -0.293009 76 0 153
-0.204946 -0.009539 0.016429 76 153 0
-0.117670 -0.026126 0.409012 0 127 127
0.223398 0.575025 -0.364475 76 0 153
0.207845 0.476955 -0.323295 76 0 153
-0.158365 0.159414 -0.261571 76 0 153
0.109742 0.546840 -0.358996 76 0 153
-0.001559 0.293594 -0.287653 76 0 153
-0.086785 0.094418 -0.270051 76 0 153
-0.314698 -0.010151 0.004760 76 153 0
-0.248108 0.560784 -0.339590 76 0 153
0.208910 0.313432 -0.291510 76 0 153
0.253699 0.117157 -0.275474 76 0 153
-0.159515 -0.028265 0.073949 76 153 0
-0.294502 0.004864 -0.175103 76 153 0
0.132913 -0.037513 0.409609 0 127 127
0.130658 0.004574 0.285722 76 153 0
-0.306278 0.373969 -0.325394 76 0 153
-0.134303 0.138829 -0.257570 76 0 153
0.358336 -0.064948 0.087331 0 255 0
-0.044001 -0.024449 0.146765 76 153 0
-0.193431 -0.016233 -0.181666 76 153 0
-0.315738 -0.023097 0.172554 76 153 0
-0.333530 0.505742 -0.328891 76 0 153
-0.361503 0.359511 -0.300466 76 0 153
-0.198469 -0.054774 0.397798 0 127 127
0.034606 0.302692 -0.311539 76 0 153
0.271107 0.154522 -0.260621 76 0 153
0.407394 -0.765534 0.487324 153 76 0
-0.363125 -0.011881 0.386554 76 153 0
0.316229 0.182154 -0.288108 76 0 153
0.339429 -0.003678 0.128257 76 153 0
0.048578 0.016173 0.507035 76 153 0
-0.252649 -0.036132 0.373303 0 127 127
-0.299002 0.008478 0.360203 76 153 0
0.409844 -0.771597 -0.193387 153 76 0
-0.124643 0.488030 -0.347565 76 0 153
-0.187734 0.049627 -0.225348 76 0 153
-0.092263 -0.002046 0.159407 76 153 0
-0.145400 -0.006027 0.498264 76 153 0
-0.356913 -0.067084 -0.020181 127 127 0
0.141739 -0.074426 0.057375 127 0 127
-0.195653 -0.033568 -0.131626 76 153 0
-0.238658 0.630798 -0.375316 76 0 153
-0.223371 0.143845 -0.280662 76 0 153
-0.340039 0.513739 -0.352562 76 0 153
-0.103002 0.638677 -0.376848 76 0 153
-0.291780 -0.007633 0.052790 76 153 0
-0.209056 0.398402 -0.330143 76 0 153
0.383989 -0.298062 -0.200890 153 0 76
-0.015326 0.261371 -0.281390 76 0 153
0.194630 0.628643 -0.352780 76 0 153
0.277458 -0.018741 0.255670 76 153 0
-0.167685 -0.020895 0.214580 76 153 0
0.012802 -0.002178 0.156875 76 153 0
-0.166798 0.355311 -0.321767 76 0 153
0.369281 0.554929 -0.338649 76 0 153
0.021712 0.636125 -0.354235 76 0 153
-0.365472 0.537268 -0.335197 76 0 153
-0.250495 0.017581 -0.226661 76 0 153
0.244775 -0.036098 -0.118091 76 153 0
0.180818 -0.026140 0.114495 76 153 0
-0.030145 -0.034620 -0.126039 76 153 0
0.096096 0.011027 0.408857 76 153 0
0.196219 0.295363 -0.310114 76 0 153
-0.260201 -0.013854 0.348923 76 153 0
-0.257900 0.013514 0.456300 76 153 0
-0.039672 0.582875 -0.343884 76 0 153
0.359080 -0.032999 -0.016378 76 153 0
0.029334 -0.001175 0.176019 76 153 0
0.051342 0.113201 -0.252588 76 0 153
-0.371922 -0.034770 0.243711 76 153 0
-0.173780 -0.030042 0.040036 76 153 0
-0.007276 0.013723 0.460293 76 153 0
0.401819 -0.771597 -0.228610 153 76 0
-0.050507 0.331985 -0.295116 76 0 153
0.308794 0.386281 -0.327787 76 0 153
0.101087 0.498523 -0.327487 76 0 153
-0.295396 -0.005275 0.097797 76 153 0
0.237139 0.646191 -0.378308 76 0 153
0.390432 -0.014757 -0.106715 76 153 0
-0.037018 -0.036694 -0.096163 76 153 0
-0.389506 -0.362774 -0.220491 76 153 0
-0.374263 -0.413494 -0.250977 76 153 0
-0.326071 0.005355 0.300627 76 153 0
-0.162715 0.010670 0.402031 76 153 0
-0.299075 0.066125 -0.235988 76 0 153
0.319334 0.355420 -0.299671 76 0 153
0.041583 0.197175 -0.291028 76 0 153
0.362974 -0.072673 -0.054956 0 255 0
-0.146070 0.608856 -0.371051 76 0 153
-0.270173 -0.010754 -0.006763 76 153 0
-0.234674 0.312139 -0.291258 76 0 153
-0.132187 -0.000513 0.188653 76 153 0
-0.120603 0.156540 -0.283130 76 0 153
0.398069 -0.771597 0.203511 153 76 0
0.245943 0.357554 -0.300086 76 0 153
0.173070 -0.005272 0.097854 76 153 0
0.362943 -0.042865 0.244766 76 153 0
0.254030 -0.014696 -0.081980 76 153 0
-0.405046 -0.771597 0.320783 76 0 153
-0.363451 0.319716 -0.292731 76 0 153
-0.094503 -0.032653 -0.009784 76 153 0
0.374028 0.421030 -0.312424 76 0 153
-0.232055 -0.036313 -0.110179 76 153 0
-0.363265 0.077814 -0.265171 76 0 153
-0.297402 0.644690 -0.378016 76 0 153
-0.193106 0.218430 -0.273043 76 0 153
0.221030 -0.032213 -0.001396 76 153 0
-0.288618 -0.016259 0.303025 76 153 0
-0.417548 -0.774560 0.457015 76 0 153
-0.209404 -0.021611 0.200908 76 153 0
0.174700 0.049888 -0.251559 76 0 153
0.237016 -0.036269 -0.078787 76 153 0
-0.367975 -0.026526 0.107112 76 153 0
0.212641 -0.010696 0.409189 76 153 0
-0.138446 -0.010365 0.000667 76 153 0
-0.174870 0.014246 0.470282 76 153 0
-0.376410 -0.568618 0.520698 0 127 127
-0.087768 0.145917 -0.281065 76 0 153
-0.316384 0.438696 -0.337975 76 0 153
-0.097626 0.005941 0.311798 76 153 0
0.399634 -0.786059 0.437478 153 76 0
-0.074296 0.539027 -0.357478 76 0 153
0.200227 0.136400 -0.257098 76 0 153
0.092569 -0.009246 -0.142095 76 153 0
0.240848 0.023527 -0.201922 76 153 0
0.161006 0.056052 -0.229645 76 0 153
-0.174203 -0.025782 0.121327 76 153 0
0.401103 -0.657348 0.520698 76 0 153
0.235688 -0.014883 -0.102067 76 153 0
-0.271315 -0.036824 0.407761 0 127 127
0.358576 0.065950 -0.235908 76 0 153
0.307531 0.291093 -0.287167 76 0 153
0.392446 -0.476812 -0.270157 153 0 76
-0.169491 0.377786 -0.304018 76 0 153
0.027868 -0.010705 0.409004 76 153 0
0.325008 0.001289 0.223034 76 153 0
-0.329543 -0.019115 0.248533 76 153 0
0.184928 0.117314 -0.275505 76 0 153
0.011184 -0.005030 0.102461 76 153 0
0.357317 0.502116 -0.350303 76 0 153
-0.261456 -0.023362 0.167498 76 153 0
0.022325 0.548915 -0.359400 76 0 153
-0.368564 -0.289811 0.506224 0 127 127
-0.349226 -0.045877 0.506224 127 127 0
0.002065 0.415857 -0.311419 76 0 153
-0.101378 0.595262 -0.368409 76 0 153
-0.165279 -0.003282 0.135809 76 153 0
-0.088003 0.453338 -0.340821 76 0 153
0.232846 0.206067 -0.292757 76 0 153
-0.200326 -0.033161 0.373147 0 127 127
-0.311900 0.066784 -0.260106 76 0 153
-0.231608 0.008335 -0.181394 76 153 0
0.135909 -0.026831 0.101318 76 153 0
-0.037669 -0.013048 0.364299 0 127 127
0.076080 0.629231 -0.375011 76 0 153
0.401075 -0.768978 -0.304655 153 76 0
-0.325558 -0.028265 0.073932 127 0 127
-0.074323 -0.054019 0.055380 127 0 127
0.205435 0.085548 -0.244908 76 0 153
-0.272961 0.426397 -0.313467 76 0 153
0.385201 0.054066 -0.254265 76 0 153
0.212045 -0.023009 0.174237 76 153 0
0.357878 0.532579 -0.334107 76 0 153
-0.169534 0.105082 -0.250554 76 0 153
-0.363142 -0.045552 0.193501 127 127 0
-0.091798 -0.017964 0.270500 76 153 0
0.079131 0.043062 -0.246994 76 0 153
-0.400848 -0.759146 -0.319561 76 0 153
0.272626 0.074512 -0.263655 76 0 153
0.258566 0.011008 0.408496 76 153 0
0.053875 -0.030615 0.029100 76 153 0
-0.315098 -0.007501 0.470133 76 153 0
0.122729 0.635151 -0.354045 76 0 153
0.120445 0.001767 0.232150 76 153 0
0.147122 0.374262 -0.303334 76 0 153
0.405984 -0.785941 -0.122296 153 76 0
0.240474 0.015868 0.501227 76 153 0
0.247856 0.513743 -0.330446 76 0 153
-0.263045 0.007099 0.333906 76 153 0
-0.067330 -0.009894 0.424478 76 153 0
-0.362736 -0.353887 0.520698 0 127 127
-0.333678 -0.013793 -0.064748 76 153 0
0.103410 0.657348 -0.360137 76 0 153
0.286774 -0.006672 0.071127 76 153 0
0.371085 0.007930 0.349748 76 153 0
-0.281870 0.543194 -0.358287 76 0 153
0.301417 0.125751 -0.255028 76 0 153
0.337060 -0.039765 0.265437 0 255 0
-0.394927 -0.590195 0.520698 0 127 127
-0.002977 -0.011815 0.387827 76 153 0
0.042977 0.381659 -0.304771 76 0 153
-0.274840 0.074539 -0.239852 76 0 153
0.007725 0.002314 0.242589 76 153 0
0.080214 -0.008728 0.446724 76 153 0
-0.378615 -0.011497 0.089555 76 153 0
-0.007517 0.214392 -0.272258 76 0 153
0.168041 0.020943 -0.229784 76 0 153
0.258095 0.034622 -0.241349 76 0 153
-0.062954 0.015988 0.503519 76 153 0
-0.346949 0.471976 -0.322327 76 0 153
-0.182463 -0.001051 0.178390 76 153 0
0.269712 0.450769 -0.318205 76 0 153
0.084824 -0.035817 -0.070163 76 153 0
0.146613 -0.022327 0.187243 76 153 0
0.318910 -0.028151 0.076126 76 153 0
-0.061025 -0.022156 0.190515 76 153 0
-0.398795 -0.771597 0.292427 76 0 153
0.182620 -0.014043 -0.185635 76 153 0
0.256371 -0.030256 0.035953 76 153 0
-0.350355 0.576351 -0.364733 76 0 153
0.273177 -0.006073 -0.150920 76 153 0
0.093742 -0.035991 0.409529 0 127 127
-0.216080 0.412360 -0.310739 76 0 153
-0.154778 0.529077 -0.355543 76 0 153
0.283335 0.578455 -0.343025 76 0 153
0.315352 -0.010228 0.003280 76 153 0
0.108915 -0.005838 0.501874 76 153 0
-0.058663 0.655364 -0.357974 76 0 153
0.028236 -0.034236 -0.039985 76 153 0
-0.007778 0.428925 -0.336076 76 0 153
-0.177322 0.237075 -0.298784 76 0 153
0.029382 -0.026671 0.104368 76 153 0
0.365806 -0.010311 0.001690 76 153 0
0.135538 0.599737 -0.369279 76 0 153
0.054107 0.288551 -0.286673 76 0 153
-0.277455 -0.036206 -0.077578 76 153 0
0.156765 0.516778 -0.353153 76 0 153
-0.399684 -0.594484 -0.305800 76 153 0
0.148047 0.012918 0.444935 76 153 0
-0.106189 0.474902 -0.322896 76 0 153
0.288217 0.027108 -0.205972 76 0 153
0.409677 -0.739697 0.520030 76 0 153
-0.357290 0.653694 -0.378934 76 0 153
0.342574 -0.012329 -0.036801 76 153 0
-0.340378 0.571641 -0.341700 76 0 153
-0.297772 0.086997 -0.267985 76 0 153
0.199042 -0.020425 0.223553 76 153 0
-0.205451 -0.032102 0.000738 76 153 0
0.163166 0.013725 -0.189376 76 153 0
-0.197855 -0.006253 0.493953 76 153 0
0.212386 -0.017718 0.275201 76 153 0
0.154690 -0.013423 -0.057680 76 153 0
-0.324836 -0.056651 0.021096 127 127 0
-0.270846 -0.017682 -0.179040 76 153 0
0.035819 0.399387 -0.330334 76 0 153
-0.145311 0.270521 -0.283168 76 0 153
-0.018986 0.278946 -0.306923 76 0 153
-0.396767 -0.557785 -0.294684 76 153 0
0.302524 0.403043 -0.308928 76 0 153
0.402353 -0.444820 -0.245343 153 0 76
0.005362 -0.025964 0.117853 76 153 0
0.013907 -0.014338 -0.075143 76 153 0
0.310649 -0.032701 -0.010701 76 153 0
-0.288607 0.013736 0.460550 76 153 0
-0.377127 -0.377814 -0.240170 76 153 0
