ply
format ascii 1.0
element vertex 627
property float x
property float y
property float z
property float nx
property float ny
property float nz
property uchar red
property uchar green
property uchar blue
property float opacity
end_header
-0.352390 0.119935 -0.237127 1.000000 0.000000 0.000000 161 97 48 1.000000
0.400311 -0.158479 -0.177866 -1.000000 0.000000 0.000000 126 68 16 1.000000
-0.379527 -0.140461 0.300345 0.000000 0.997855 -0.065467 158 106 52 1.000000
0.247097 -0.095490 -0.284684 0.000000 0.121417 -0.992602 134 84 33 1.000000
-0.195460 0.338530 -0.279960 0.000000 0.987960 -0.154710 129 81 31 1.000000
0.040744 -0.070108 -0.009626 0.000000 0.999222 -0.039451 255 255 255 1.000000
0.400311 -0.477751 0.486658 -1.000000 0.000000 0.000000 113 65 17 1.000000
-0.170208 -0.009689 -0.221256 0.000000 0.743205 -0.669063 255 255 255 1.000000
-0.001993 -0.011097 0.522367 0.000000 -0.039451 -0.999222 255 255 255 1.000000
0.053453 -0.058479 0.522087 0.000000 0.000000 -1.000000 156 92 34 1.000000
-0.363018 0.389605 -0.244015 0.000000 -0.148995 -0.988838 161 106 53 1.000000
-0.390405 -0.654784 0.523865 0.000000 0.000000 -1.000000 183 119 61 1.000000
0.370255 0.082804 -0.227439 0.000000 -0.041440 0.999141 157 102 50 1.000000
-0.402215 -0.026327 0.072952 -1.000000 0.000000 0.000000 0 0 0 1.000000
0.353612 -0.014750 0.152068 0.000000 -0.999222 0.039451 255 255 255 1.000000
0.306395 -0.049529 0.511599 0.000000 0.999222 -0.039451 155 100 45 1.000000
-0.184395 0.040289 0.305753 0.000000 0.999222 -0.039451 0 0 0 1.000000
0.316783 -0.073413 -0.093347 0.000000 -0.999222 0.039451 255 255 255 1.000000
0.142655 -0.177164 -0.300292 0.000000 1.000000 0.000000 137 81 32 1.000000
-0.034899 -0.080279 -0.267254 0.000000 -0.999222 0.039451 255 255 255 1.000000
0.400311 -0.133300 0.159993 1.000000 0.000000 0.000000 122 72 25 1.000000
0.189872 -0.014746 0.152174 0.000000 0.999222 -0.039451 255 255 255 1.000000
0.383695 -0.029086 -0.211037 0.000000 0.999222 -0.039451 255 255 255 1.000000
-0.077894 0.038682 0.265065 0.000000 -0.999222 0.039451 255 255 255 1.000000
0.384883 -0.273478 0.465800 0.000000 -0.018776 -0.999824 132 82 33 1.000000
0.350486 -0.096037 -0.256380 1.000000 0.000000 0.000000 159 103 42 1.000000
-0.170391 0.596948 -0.333450 0.000000 0.965926 -0.258819 178 112 50 1.000000
-0.286299 -0.019501 0.031748 0.000000 0.999222 -0.039451 255 255 255 1.000000
0.034783 -0.059250 0.265376 0.000000 0.999222 -0.039451 255 255 255 1.000000
0.338758 -0.053304 0.415983 0.000000 -0.999222 0.039451 255 255 255 1.000000
-0.352390 -0.648477 0.490555 1.000000 0.000000 0.000000 156 105 48 1.000000
0.266353 -0.005447 0.387718 0.000000 -0.999222 0.039451 255 255 255 1.000000
0.350486 -0.454822 -0.330607 1.000000 0.000000 0.000000 152 97 42 1.000000
0.183183 0.035290 0.179144 0.000000 -0.999222 0.039451 255 255 255 1.000000
0.350486 -0.295959 0.485355 -1.000000 0.000000 0.000000 141 93 43 1.000000
0.015130 -0.018623 0.053972 0.000000 0.999222 -0.039451 255 255 255 1.000000
0.008931 -0.073700 0.522087 0.000000 0.000000 -1.000000 145 92 38 1.000000
0.276830 0.039871 0.469730 0.000000 -0.793641 -0.608387 255 255 255 1.000000
-0.402215 -0.108656 0.367454 1.000000 0.000000 0.000000 157 103 43 1.000000
-0.113909 -0.052046 0.447853 0.000000 -0.999222 0.039451 255 255 255 1.000000
-0.024186 0.460612 -0.323074 -0.011595 -0.197644 -0.980205 168 114 74 1.000000
0.002007 0.031740 0.089217 0.000000 -0.999222 0.039451 255 255 255 1.000000
-0.378603 -0.776360 -0.364117 0.000000 -0.056407 0.998408 137 80 23 1.000000
0.394795 -0.060652 0.229862 0.000000 0.999222 -0.039451 143 89 37 1.000000
0.043770 -0.009997 -0.221598 0.000000 -0.743205 0.669063 255 255 255 1.000000
-0.106587 -0.076222 -0.164500 0.000000 0.999222 -0.039451 255 255 255 1.000000
0.049454 -0.017360 0.085973 0.000000 0.999222 -0.039451 255 255 255 1.000000
0.383725 -0.647371 0.523865 0.000000 0.000000 1.000000 164 111 53 1.000000
0.173526 -0.003357 0.440646 0.000000 0.999222 -0.039451 255 255 255 1.000000
-0.220999 0.038849 0.269285 0.000000 0.999222 -0.039451 0 0 0 1.000000
0.141044 -0.006770 0.354209 0.000000 0.999222 -0.039451 255 255 255 1.000000
0.400311 -0.104310 0.051351 -1.000000 0.000000 0.000000 123 73 22 1.000000
-0.352390 -0.097541 0.456103 1.000000 0.000000 0.000000 144 92 41 1.000000
-0.341325 0.043315 0.382402 0.000000 -0.999222 0.039451 255 255 255 1.000000
0.355319 -0.625029 -0.309692 0.000000 0.112280 -0.993677 145 85 39 1.000000
-0.165279 0.682243 -0.344448 -0.089148 -0.343923 -0.934756 151 101 52 1.000000
0.350486 -0.129528 0.414078 1.000000 0.000000 0.000000 151 97 39 1.000000
-0.272262 -0.010663 0.255600 0.000000 -0.999222 0.039451 255 255 255 1.000000
-0.062301 0.031882 0.092824 0.000000 -0.999222 0.039451 255 255 255 1.000000
0.284438 -0.067182 0.064486 0.000000 0.999222 -0.039451 255 255 255 1.000000
-0.299488 -0.028161 -0.187596 0.000000 0.999222 -0.039451 255 255 255 1.000000
0.322848 -0.018910 -0.284831 0.000000 -0.926021 0.377472 0 0 0 1.000000
-0.402215 -0.572119 -0.304277 -1.000000 0.000000 0.000000 159 98 42 1.000000
-0.172388 0.043236 0.465341 0.000000 -0.793641 -0.608387 255 255 255 1.000000
-0.353333 -0.076617 -0.174499 0.000000 -0.999222 0.039451 162 101 42 1.000000
0.318742 -0.065207 0.522087 0.000000 0.000000 -1.000000 150 95 43 1.000000
-0.072222 -0.028390 -0.193400 0.000000 -0.999222 0.039451 255 255 255 1.000000
-0.352729 -0.793696 -0.328751 0.000000 0.112280 -0.993677 143 86 31 1.000000
-0.054548 -0.073810 -0.103387 0.000000 0.999222 -0.039451 255 255 255 1.000000
-0.386374 -0.139518 0.463284 0.000000 0.018776 0.999824 133 78 35 1.000000
-0.109333 -0.024082 -0.084284 0.000000 0.999222 -0.039451 255 255 255 1.000000
0.350486 -0.698651 0.477373 -1.000000 0.000000 0.000000 127 68 14 1.000000
0.019786 0.694924 -0.396563 -0.011251 0.345276 0.938434 142 84 24 1.000000
-0.368111 -0.297736 -0.337076 0.000000 -0.056407 0.998408 135 84 40 1.000000
0.364368 0.291184 -0.309808 0.000000 0.059533 0.998226 147 93 51 1.000000
-0.033107 -0.021795 0.522790 0.000000 -0.039451 -0.999222 255 255 255 1.000000
0.293633 -0.071034 -0.033089 0.000000 -0.999222 0.039451 255 255 255 1.000000
0.262683 -0.082238 -0.316865 0.000000 -0.999222 0.039451 146 91 38 1.000000
0.025359 -0.069331 0.010040 0.000000 0.999222 -0.039451 255 255 255 1.000000
-0.144702 -0.071685 -0.049577 0.000000 0.999222 -0.039451 255 255 255 1.000000
0.307725 -0.022318 -0.039613 0.000000 -0.999222 0.039451 255 255 255 1.000000
0.170277 -0.015760 0.126509 0.000000 -0.999222 0.039451 255 255 255 1.000000
0.383988 0.135893 -0.225775 0.000000 0.009656 -0.999953 137 83 31 1.000000
0.276011 0.563772 -0.312887 0.000000 0.965926 -0.258819 158 106 55 1.000000
-0.084926 -0.079395 -0.244870 0.000000 0.999222 -0.039451 255 255 255 1.000000
0.169437 0.005357 -0.204542 0.000000 -0.743205 0.669063 255 255 255 1.000000
-0.402215 -0.019873 0.206988 -1.000000 0.000000 0.000000 0 0 0 1.000000
0.369732 -0.056357 0.338669 0.000000 0.999222 -0.039451 255 255 255 1.000000
0.400311 -0.737441 0.496320 1.000000 0.000000 0.000000 164 111 45 1.000000
-0.098622 0.475779 -0.290978 -0.052988 -0.197379 -0.978894 146 90 43 1.000000
0.035289 0.027616 -0.015213 0.000000 -0.999222 0.039451 255 255 255 1.000000
-0.402215 -0.740123 -0.342478 1.000000 0.000000 0.000000 159 92 33 1.000000
-0.256914 -0.012217 0.216228 0.000000 0.999222 -0.039451 255 255 255 1.000000
0.094056 -0.007986 -0.258031 0.000000 0.926021 -0.377472 0 0 0 1.000000
-0.402215 0.304000 -0.288585 1.000000 0.000000 0.000000 158 103 51 1.000000
0.355501 0.017931 0.035734 0.639223 0.768423 -0.030338 0 0 0 1.000000
-0.401596 -0.214448 -0.263299 0.000000 -0.112280 0.993677 144 93 49 1.000000
0.400311 -0.130136 -0.081895 1.000000 0.000000 0.000000 144 90 30 1.000000
-0.305061 -0.078026 -0.210173 0.000000 -0.999222 0.039451 255 255 255 1.000000
-0.016906 -0.016593 0.105395 0.000000 -0.999222 0.039451 255 255 255 1.000000
-0.094183 0.042709 0.466027 0.000000 -0.793641 -0.608387 255 255 255 1.000000
0.086351 -0.011382 0.237377 0.000000 0.999222 -0.039451 255 255 255 1.000000
0.105873 0.035792 0.191854 0.000000 -0.999222 0.039451 255 255 255 1.000000
-0.112294 -0.056433 0.336737 0.000000 0.999222 -0.039451 255 255 255 1.000000
-0.211959 0.723604 -0.354497 0.114477 0.343028 0.932323 128 78 31 1.000000
-0.145401 -0.070563 -0.021156 0.000000 0.999222 -0.039451 255 255 255 1.000000
0.392098 0.696703 -0.321828 0.000000 -0.333596 -0.942716 137 82 29 1.000000
0.012168 0.044691 0.417262 0.000000 -0.999222 0.039451 255 255 255 1.000000
0.147064 0.033814 0.141763 0.000000 -0.999222 0.039451 255 255 255 1.000000
0.350486 -0.074348 0.226224 1.000000 0.000000 0.000000 143 93 44 1.000000
0.100090 -0.025567 -0.121905 0.000000 -0.999222 0.039451 255 255 255 1.000000
0.233709 -0.064893 0.122443 0.000000 0.999222 -0.039451 255 255 255 1.000000
-0.055779 -0.078059 -0.318628 0.000000 0.039451 0.999222 255 255 255 1.000000
0.137838 -0.052442 0.437826 0.000000 0.999222 -0.039451 255 255 255 1.000000
0.350486 0.523678 -0.318149 -1.000000 0.000000 0.000000 151 96 41 1.000000
0.400311 0.636199 -0.337633 1.000000 0.000000 0.000000 157 102 47 1.000000
-0.042045 -0.021500 -0.018889 0.000000 -0.999222 0.039451 255 255 255 1.000000
-0.085313 -0.015501 0.133066 0.000000 0.999222 -0.039451 255 255 255 1.000000
0.398809 -0.405019 0.468270 0.000000 -0.018776 -0.999824 145 90 35 1.000000
0.328375 -0.128458 -0.324203 0.000000 -0.123473 0.992348 151 85 36 1.000000
0.400311 -0.088113 -0.023036 1.000000 0.000000 0.000000 153 98 45 1.000000
0.334354 0.039897 0.295828 0.000000 -0.999222 0.039451 255 255 255 1.000000
0.350486 -0.101971 0.291093 -1.000000 0.000000 0.000000 145 95 44 1.000000
0.271581 -0.074337 -0.116748 0.000000 0.999222 -0.039451 255 255 255 1.000000
0.305738 -0.016770 0.100927 0.000000 0.999222 -0.039451 255 255 255 1.000000
0.400311 -0.115766 -0.265273 -1.000000 0.000000 0.000000 137 78 26 1.000000
-0.239604 -0.003598 0.434539 0.000000 0.999222 -0.039451 255 255 255 1.000000
0.377851 0.517927 -0.268310 0.000000 -0.228591 -0.973523 140 85 30 1.000000
0.347050 -0.051403 0.464143 0.000000 -0.999222 0.039451 255 255 255 1.000000
0.393939 0.255016 -0.229524 0.000000 -0.072603 -0.997361 142 82 32 1.000000
-0.352390 -0.171750 0.500208 -1.000000 0.000000 0.000000 147 95 42 1.000000
0.400311 0.214707 -0.236905 -1.000000 0.000000 0.000000 149 87 34 1.000000
-0.402215 0.123581 -0.295222 1.000000 0.000000 0.000000 138 86 35 1.000000
0.248756 -0.008284 0.315866 0.000000 -0.999222 0.039451 255 255 255 1.000000
-0.210456 0.470177 -0.280285 -0.113661 -0.196376 -0.973919 136 86 37 1.000000
0.367746 -0.028305 -0.191247 0.000000 -0.999222 0.039451 255 255 255 1.000000
0.098664 0.465705 -0.321526 -0.054044 0.197368 0.978839 154 100 48 1.000000
-0.352390 -0.098559 0.183870 -1.000000 0.000000 0.000000 138 78 28 1.000000
0.400311 0.048005 -0.280000 1.000000 0.000000 0.000000 150 90 28 1.000000
0.400311 -0.043567 0.355587 1.000000 0.000000 0.000000 0 0 0 1.000000
-0.364291 0.025306 0.367596 0.639223 -0.768423 0.030338 255 255 255 1.000000
0.400311 -0.052878 0.388959 -1.000000 0.000000 0.000000 255 255 255 1.000000
-0.370989 -0.090238 0.523865 0.000000 0.000000 -1.000000 151 99 45 1.000000
-0.300624 0.004997 0.515224 0.000000 -0.793641 -0.608387 255 255 255 1.000000
-0.030355 0.031177 0.074973 0.000000 0.999222 -0.039451 0 0 0 1.000000
0.210939 -0.058622 0.281278 0.000000 0.999222 -0.039451 255 255 255 1.000000
0.083808 -0.076425 -0.169637 0.000000 0.999222 -0.039451 255 255 255 1.000000
-0.352390 -0.799162 0.519210 -1.000000 0.000000 0.000000 130 80 29 1.000000
-0.257302 -0.009288 0.522296 0.000000 -0.039451 -0.999222 255 255 255 1.000000
-0.114063 -0.015212 -0.275760 0.000000 0.926021 -0.377472 0 0 0 1.000000
-0.152132 -0.120292 0.503622 0.000000 -1.000000 0.000000 144 92 39 1.000000
0.400311 0.293131 -0.248742 1.000000 0.000000 0.000000 133 73 25 1.000000
-0.402215 -0.116479 0.333778 1.000000 0.000000 0.000000 143 88 36 1.000000
0.301326 -0.027245 -0.164391 0.000000 -0.999222 0.039451 255 255 255 1.000000
0.400311 -0.039523 0.445609 1.000000 0.000000 0.000000 0 0 0 1.000000
0.308458 0.009954 -0.214020 0.000000 0.926021 -0.377472 0 0 0 1.000000
-0.325603 -0.055793 0.352943 0.000000 -0.999222 0.039451 255 255 255 1.000000
-0.233506 0.038115 0.472021 0.000000 0.793641 0.608387 0 0 0 1.000000
-0.388560 -0.807084 0.489497 0.000000 1.000000 0.000000 140 84 35 1.000000
0.024917 -0.009373 0.288269 0.000000 0.999222 -0.039451 255 255 255 1.000000
0.219650 -0.076791 -0.178915 0.000000 -0.999222 0.039451 255 255 255 1.000000
0.400311 -0.337083 -0.338837 1.000000 0.000000 0.000000 167 112 59 1.000000
0.381046 0.005668 0.263353 0.639223 0.768423 -0.030338 0 0 0 1.000000
-0.352390 -0.111504 0.010622 1.000000 0.000000 0.000000 139 83 38 1.000000
0.366852 -0.400903 -0.342904 0.000000 0.056407 -0.998408 147 91 44 1.000000
-0.296376 0.483605 -0.271076 0.159712 0.195120 0.967688 149 94 42 1.000000
0.008626 0.039043 0.274195 0.000000 0.999222 -0.039451 0 0 0 1.000000
-0.063296 0.027290 -0.023481 0.000000 -0.999222 0.039451 255 255 255 1.000000
0.350486 -0.682693 -0.329796 -1.000000 0.000000 0.000000 134 72 19 1.000000
0.387028 -0.001099 0.497829 0.000000 0.999222 -0.039451 255 255 255 1.000000
0.393746 -0.057545 0.308569 0.000000 -0.999222 0.039451 133 80 34 1.000000
0.400311 -0.454452 -0.308934 1.000000 0.000000 0.000000 159 104 49 1.000000
-0.217091 0.028412 0.004941 0.000000 -0.999222 0.039451 255 255 255 1.000000
0.400311 0.670399 -0.350087 -1.000000 0.000000 0.000000 146 92 34 1.000000
0.246474 -0.072462 -0.069261 0.000000 0.999222 -0.039451 255 255 255 1.000000
-0.355705 -0.653416 0.523865 0.000000 0.000000 -1.000000 149 97 43 1.000000
0.028065 -0.060490 0.233980 0.000000 0.999222 -0.039451 255 255 255 1.000000
0.103063 -0.022924 -0.054943 0.000000 -0.999222 0.039451 255 255 255 1.000000
0.056613 0.024840 -0.085529 0.000000 -0.999222 0.039451 255 255 255 1.000000
-0.007493 -0.021324 -0.014438 0.000000 -0.999222 0.039451 255 255 255 1.000000
0.389926 0.256013 -0.308170 0.000000 0.049465 0.998776 132 79 33 1.000000
-0.402215 -0.224962 0.478204 -1.000000 0.000000 0.000000 144 92 31 1.000000
0.254815 0.377569 -0.272193 0.000000 -0.987960 0.154710 139 88 44 1.000000
0.181557 -0.008488 0.310676 0.000000 -0.999222 0.039451 255 255 255 1.000000
0.350486 -0.136455 0.124248 1.000000 0.000000 0.000000 137 78 24 1.000000
-0.328066 0.496454 -0.267924 -0.168324 -0.194837 -0.966284 172 118 57 1.000000
-0.082367 0.022293 -0.150039 0.000000 0.999222 -0.039451 0 0 0 1.000000
0.175665 -0.026150 -0.136672 0.000000 0.999222 -0.039451 255 255 255 1.000000
-0.326919 -0.023944 -0.080800 0.000000 0.999222 -0.039451 255 255 255 1.000000
-0.057656 -0.120292 0.502090 0.000000 1.000000 0.000000 135 78 37 1.000000
-0.031195 -0.010332 0.263986 0.000000 0.999222 -0.039451 255 255 255 1.000000
-0.286261 0.045606 0.440436 0.000000 -0.999222 0.039451 255 255 255 1.000000
0.115433 -0.067255 0.062639 0.000000 -0.999222 0.039451 255 255 255 1.000000
0.400311 -0.606951 -0.325431 1.000000 0.000000 0.000000 147 89 30 1.000000
0.034655 -0.058016 0.296628 0.000000 -0.999222 0.039451 255 255 255 1.000000
-0.005410 -0.120292 0.504227 0.000000 1.000000 0.000000 142 86 41 1.000000
0.326749 0.708236 -0.330466 0.168484 -0.340362 -0.925077 149 86 23 1.000000
0.123874 0.571274 -0.346543 -0.067717 0.258225 0.963709 131 81 34 1.000000
-0.066048 -0.017410 0.084696 0.000000 -0.999222 0.039451 255 255 255 1.000000
0.296549 -0.014361 0.161944 0.000000 -0.999222 0.039451 255 255 255 1.000000
-0.276741 -0.027063 -0.159790 0.000000 -0.999222 0.039451 255 255 255 1.000000
-0.370588 0.201379 -0.306204 0.000000 -0.019963 -0.999801 120 65 12 1.000000
-0.373289 -0.355900 0.523865 0.000000 0.000000 -1.000000 142 87 35 1.000000
0.008919 -0.031210 -0.264835 0.000000 0.999222 -0.039451 255 255 255 1.000000
0.350486 -0.121513 -0.296420 -1.000000 0.000000 0.000000 146 87 35 1.000000
-0.308753 -0.064486 0.132756 0.000000 -0.999222 0.039451 255 255 255 1.000000
-0.402215 -0.063098 0.284209 -1.000000 0.000000 0.000000 134 84 33 1.000000
-0.371282 0.005103 0.003194 0.639223 -0.768423 0.030338 255 255 255 1.000000
-0.250994 -0.016735 0.101802 0.000000 -0.999222 0.039451 255 255 255 1.000000
0.178033 0.356924 -0.296857 0.097093 -0.153980 -0.983292 154 98 51 1.000000
0.217408 -0.031903 -0.282373 0.000000 -0.999222 0.039451 255 255 255 1.000000
0.350486 0.099607 -0.268530 -1.000000 0.000000 0.000000 139 83 34 1.000000
0.012851 -0.025433 -0.118515 0.000000 -0.999222 0.039451 255 255 255 1.000000
0.344160 -0.120292 0.516128 0.000000 -1.000000 0.000000 153 97 48 1.000000
-0.251897 -0.025586 -0.122372 0.000000 0.999222 -0.039451 255 255 255 1.000000
-0.021499 0.022918 -0.134202 0.000000 -0.999222 0.039451 255 255 255 1.000000
-0.175095 -0.116883 0.486499 0.000000 0.000000 -1.000000 137 78 22 1.000000
0.059734 0.369960 -0.274293 0.032920 -0.154627 -0.987424 141 90 46 1.000000
0.357335 -0.532599 -0.299248 0.000000 0.112280 -0.993677 145 89 40 1.000000
0.053816 -0.081909 -0.308539 0.000000 -0.999222 0.039451 144 88 39 1.000000
0.034938 -0.030792 -0.254228 0.000000 -0.999222 0.039451 255 255 255 1.000000
0.400311 -0.550841 0.492067 -1.000000 0.000000 0.000000 149 95 37 1.000000
-0.286555 0.035761 0.191064 0.000000 0.999222 -0.039451 0 0 0 1.000000
0.152618 0.032278 0.102864 0.000000 -0.999222 0.039451 255 255 255 1.000000
-0.161932 -0.068180 0.486499 0.000000 0.000000 -1.000000 127 81 33 1.000000
0.023032 0.037233 0.228344 0.000000 0.999222 -0.039451 0 0 0 1.000000
0.350486 0.511268 -0.280497 -1.000000 0.000000 0.000000 154 99 46 1.000000
-0.173109 -0.065251 0.113398 0.000000 0.999222 -0.039451 255 255 255 1.000000
0.174925 -0.075244 -0.139716 0.000000 -0.999222 0.039451 255 255 255 1.000000
-0.095361 -0.002220 0.469453 0.000000 -0.999222 0.039451 255 255 255 1.000000
-0.402215 -0.129997 -0.106735 -1.000000 0.000000 0.000000 153 88 34 1.000000
0.400311 -0.073655 0.438098 1.000000 0.000000 0.000000 145 95 46 1.000000
0.400311 -0.077916 0.065416 1.000000 0.000000 0.000000 135 85 36 1.000000
-0.142064 -0.000845 -0.211432 0.000000 -0.743205 0.669063 255 255 255 1.000000
-0.014139 0.039967 0.297592 0.000000 0.999222 -0.039451 0 0 0 1.000000
-0.243748 -0.078196 -0.214499 0.000000 -0.999222 0.039451 255 255 255 1.000000
0.400311 -0.176896 -0.266591 -1.000000 0.000000 0.000000 138 88 41 1.000000
-0.006993 -0.063299 0.162823 0.000000 0.999222 -0.039451 255 255 255 1.000000
-0.394050 -0.754586 0.474835 0.000000 -0.018776 -0.999824 149 84 38 1.000000
0.229095 -0.021354 -0.015177 0.000000 0.999222 -0.039451 255 255 255 1.000000
-0.357333 0.007766 -0.203253 0.430853 -0.845527 0.315358 0 0 0 1.000000
-0.402215 -0.368874 0.491432 1.000000 0.000000 0.000000 148 92 43 1.000000
-0.158748 0.045363 0.434263 0.000000 0.999222 -0.039451 0 0 0 1.000000
0.400311 -0.568103 0.512684 1.000000 0.000000 0.000000 145 93 42 1.000000
-0.103614 -0.030542 -0.247902 0.000000 0.999222 -0.039451 255 255 255 1.000000
-0.402215 -0.583151 0.490003 1.000000 0.000000 0.000000 151 91 27 1.000000
0.230986 -0.018357 -0.283473 0.000000 0.926021 -0.377472 0 0 0 1.000000
-0.028163 -0.046885 0.523780 0.000000 -0.039451 -0.999222 255 255 255 1.000000
-0.282840 -0.064581 0.130346 0.000000 -0.999222 0.039451 255 255 255 1.000000
0.001558 0.020905 -0.185197 0.000000 0.999222 -0.039451 0 0 0 1.000000
0.296016 -0.063251 0.164049 0.000000 -0.999222 0.039451 255 255 255 1.000000
0.350486 -0.151621 -0.123567 1.000000 0.000000 0.000000 149 98 57 1.000000
-0.311012 0.015238 0.501865 0.000000 0.793641 0.608387 0 0 0 1.000000
0.112771 0.040874 0.320578 0.000000 0.999222 -0.039451 0 0 0 1.000000
-0.402215 0.470655 -0.317576 -1.000000 0.000000 0.000000 149 100 46 1.000000
0.384239 -0.076201 -0.163954 0.000000 0.999222 -0.039451 136 76 26 1.000000
-0.335431 -0.081882 0.522087 0.000000 0.000000 1.000000 155 99 52 1.000000
-0.369660 -0.177164 -0.268657 0.000000 1.000000 0.000000 148 90 30 1.000000
-0.365148 0.441611 -0.252322 0.000000 -0.181232 -0.983440 166 111 56 1.000000
0.400311 -0.525295 -0.330522 -1.000000 0.000000 0.000000 143 87 38 1.000000
0.400311 -0.116649 0.294922 1.000000 0.000000 0.000000 140 74 25 1.000000
-0.402215 0.635186 -0.307541 1.000000 0.000000 0.000000 133 78 26 1.000000
-0.402215 -0.149363 -0.224343 -1.000000 0.000000 0.000000 165 110 55 1.000000
0.328811 0.686659 -0.361954 0.169043 -0.340329 -0.924987 136 85 41 1.000000
-0.298879 -0.071576 -0.046825 0.000000 0.999222 -0.039451 255 255 255 1.000000
-0.007397 0.337522 -0.286394 0.000000 -0.987960 0.154710 138 81 39 1.000000
0.342462 0.492664 -0.288846 0.000000 -0.980271 0.197657 138 83 40 1.000000
0.350486 -0.084833 0.061556 -1.000000 0.000000 0.000000 148 89 37 1.000000
0.270451 0.045043 0.426167 0.000000 -0.999222 0.039451 255 255 255 1.000000
-0.305065 0.046313 0.458326 0.000000 0.999222 -0.039451 0 0 0 1.000000
0.054899 0.031844 0.091868 0.000000 0.999222 -0.039451 0 0 0 1.000000
-0.352390 -0.505915 0.485717 1.000000 0.000000 0.000000 137 89 29 1.000000
-0.402215 -0.078088 0.203607 -1.000000 0.000000 0.000000 139 86 38 1.000000
-0.046091 0.026877 -0.033950 0.000000 -0.999222 0.039451 255 255 255 1.000000
-0.303535 -0.054723 0.380034 0.000000 0.999222 -0.039451 255 255 255 1.000000
-0.402215 -0.011318 0.443572 -1.000000 0.000000 0.000000 0 0 0 1.000000
0.144792 -0.028964 -0.207945 0.000000 0.999222 -0.039451 255 255 255 1.000000
-0.402215 -0.128672 0.253622 1.000000 0.000000 0.000000 133 92 35 1.000000
-0.352390 -0.283007 -0.279255 1.000000 0.000000 0.000000 151 101 54 1.000000
-0.383944 -0.070359 -0.015985 0.000000 0.999222 -0.039451 255 255 255 1.000000
0.350486 -0.142258 -0.213087 -1.000000 0.000000 0.000000 158 103 48 1.000000
0.400311 -0.290641 -0.308973 -1.000000 0.000000 0.000000 142 92 45 1.000000
-0.255928 0.681189 -0.372756 0.138329 0.341979 0.929471 152 90 39 1.000000
-0.400145 -0.201361 0.523865 0.000000 0.000000 1.000000 156 106 55 1.000000
0.400311 -0.029519 -0.152461 -1.000000 0.000000 0.000000 255 255 255 1.000000
0.301441 -0.050401 0.489513 0.000000 0.999222 -0.039451 148 93 38 1.000000
-0.339792 -0.069217 0.012929 0.000000 -0.999222 0.039451 255 255 255 1.000000
0.241311 -0.010278 0.522335 0.000000 -0.039451 -0.999222 255 255 255 1.000000
-0.352390 -0.116558 -0.224568 -1.000000 0.000000 0.000000 140 76 26 1.000000
0.270574 0.583152 -0.300003 -0.147309 0.255996 0.955388 144 91 45 1.000000
0.148183 0.037877 0.244661 0.000000 0.999222 -0.039451 0 0 0 1.000000
0.090239 0.042392 0.359016 0.000000 0.999222 -0.039451 0 0 0 1.000000
-0.227802 -0.029694 -0.226430 0.000000 -0.999222 0.039451 255 255 255 1.000000
0.302441 0.456150 -0.280879 0.000000 0.980271 -0.197657 128 78 31 1.000000
-0.390794 -0.014075 -0.071438 0.639223 -0.768423 0.030338 255 255 255 1.000000
-0.058610 0.025829 -0.060476 0.000000 0.999222 -0.039451 0 0 0 1.000000
0.336131 0.374640 -0.244425 -0.171031 0.152431 0.973403 123 69 21 1.000000
-0.176255 -0.027141 -0.161774 0.000000 -0.999222 0.039451 255 255 255 1.000000
-0.097294 0.018054 -0.194150 0.000000 0.926021 -0.377472 0 0 0 1.000000
-0.402215 -0.081155 0.371326 -1.000000 0.000000 0.000000 157 103 45 1.000000
0.400311 -0.102185 -0.286180 1.000000 0.000000 0.000000 128 70 18 1.000000
0.287893 -0.055320 0.364922 0.000000 0.999222 -0.039451 255 255 255 1.000000
-0.402215 0.570795 -0.321293 -1.000000 0.000000 0.000000 150 95 42 1.000000
0.284202 -0.177164 -0.299681 0.000000 1.000000 0.000000 146 87 35 1.000000
-0.054048 -0.051587 0.459479 0.000000 -0.999222 0.039451 255 255 255 1.000000
0.183947 0.031711 0.088488 0.000000 0.999222 -0.039451 0 0 0 1.000000
-0.037669 -0.004518 -0.215512 0.000000 -0.743205 0.669063 255 255 255 1.000000
0.350486 -0.173407 0.478346 -1.000000 0.000000 0.000000 126 68 17 1.000000
-0.072066 0.703068 -0.398286 -0.038580 -0.345042 -0.937794 151 92 36 1.000000
-0.402215 0.367331 -0.292761 1.000000 0.000000 0.000000 160 105 50 1.000000
0.199127 -0.025193 -0.238479 0.000000 -0.743205 0.669063 255 255 255 1.000000
0.400311 -0.211170 0.483243 -1.000000 0.000000 0.000000 163 109 67 1.000000
0.300604 0.041175 0.328198 0.000000 -0.999222 0.039451 255 255 255 1.000000
0.013162 -0.000860 0.503900 0.000000 0.999222 -0.039451 255 255 255 1.000000
0.124118 -0.049709 0.507047 0.000000 -0.999222 0.039451 134 83 50 1.000000
-0.400546 0.128159 -0.225834 0.000000 0.013284 -0.999912 133 79 29 1.000000
0.129732 0.667473 -0.377853 0.000000 0.938493 -0.345298 133 93 53 1.000000
0.400311 -0.128574 0.373183 -1.000000 0.000000 0.000000 153 90 35 1.000000
-0.384965 -0.181073 -0.330485 0.000000 0.056407 -0.998408 146 97 43 1.000000
0.240712 0.351080 -0.256177 -0.131099 0.153375 0.979433 144 89 34 1.000000
-0.124908 -0.002861 0.453213 0.000000 0.999222 -0.039451 255 255 255 1.000000
0.393083 -0.672536 0.473294 0.000000 0.018776 0.999824 131 71 21 1.000000
-0.352390 0.152309 -0.269447 1.000000 0.000000 0.000000 173 112 56 1.000000
-0.311877 0.031920 0.093785 0.000000 0.999222 -0.039451 0 0 0 1.000000
0.400311 -0.089520 0.522161 1.000000 0.000000 0.000000 158 103 50 1.000000
-0.109022 0.022430 -0.146561 0.000000 0.999222 -0.039451 0 0 0 1.000000
-0.141553 -0.099588 0.486499 0.000000 0.000000 -1.000000 145 92 38 1.000000
0.368891 -0.327873 -0.276116 0.000000 0.112280 -0.993677 146 97 42 1.000000
-0.387922 -0.059716 0.253576 0.000000 -0.999222 0.039451 134 79 36 1.000000
0.308179 -0.006577 0.359079 0.000000 0.999222 -0.039451 255 255 255 1.000000
0.323473 -0.017798 0.074877 0.000000 0.999222 -0.039451 255 255 255 1.000000
-0.308868 -0.001728 0.481920 0.000000 0.999222 -0.039451 255 255 255 1.000000
0.350486 -0.092246 -0.185101 -1.000000 0.000000 0.000000 138 83 30 1.000000
0.400311 -0.025100 0.506680 -1.000000 0.000000 0.000000 255 255 255 1.000000
0.391362 -0.065903 0.096866 0.000000 -0.999222 0.039451 144 95 40 1.000000
0.313840 -0.066751 0.075393 0.000000 -0.999222 0.039451 255 255 255 1.000000
0.204532 -0.120292 0.502585 0.000000 -1.000000 0.000000 150 95 40 1.000000
-0.352390 -0.462000 0.516578 -1.000000 0.000000 0.000000 138 81 40 1.000000
-0.382864 -0.029869 -0.230869 0.000000 0.999222 -0.039451 255 255 255 1.000000
0.223570 0.038135 0.251201 0.000000 0.999222 -0.039451 0 0 0 1.000000
-0.124725 0.043370 0.383803 0.000000 0.999222 -0.039451 0 0 0 1.000000
-0.059061 0.024655 -0.090218 0.000000 0.999222 -0.039451 0 0 0 1.000000
-0.402215 -0.552532 -0.325033 -1.000000 0.000000 0.000000 153 94 40 1.000000
-0.045093 -0.056415 -0.319482 0.000000 -0.039451 -0.999222 0 0 0 1.000000
-0.352390 0.498163 -0.274887 -1.000000 0.000000 0.000000 174 113 54 1.000000
0.015916 0.031308 0.078289 0.000000 0.999222 -0.039451 0 0 0 1.000000
-0.352390 -0.144745 0.066420 1.000000 0.000000 0.000000 137 96 39 1.000000
0.363023 -0.029712 -0.226892 0.000000 -0.999222 0.039451 255 255 255 1.000000
-0.158564 0.032929 0.119352 0.000000 -0.999222 0.039451 255 255 255 1.000000
-0.352390 -0.122215 -0.153919 1.000000 0.000000 0.000000 149 91 32 1.000000
0.188102 0.002769 -0.231648 0.000000 0.926021 -0.377472 0 0 0 1.000000
0.350486 -0.618200 0.495454 1.000000 0.000000 0.000000 146 83 28 1.000000
0.320484 -0.032351 -0.317804 0.000000 0.926021 -0.377472 0 0 0 1.000000
0.400311 -0.087895 -0.181384 1.000000 0.000000 0.000000 129 84 29 1.000000
0.385014 -0.132337 0.424176 0.000000 0.997855 -0.065467 149 97 27 1.000000
0.400311 0.400193 -0.260151 1.000000 0.000000 0.000000 128 69 13 1.000000
-0.194233 -0.133755 -0.289365 0.000000 -0.121417 0.992602 159 107 56 1.000000
-0.054831 0.036450 0.208526 0.000000 -0.999222 0.039451 255 255 255 1.000000
0.234590 0.731127 -0.354312 0.127772 -0.342468 -0.930801 164 92 30 1.000000
-0.111215 0.486984 -0.317014 0.000000 0.980271 -0.197657 141 83 24 1.000000
0.400311 -0.073041 0.110955 1.000000 0.000000 0.000000 145 92 44 1.000000
0.065631 0.712523 -0.362179 -0.036121 0.345073 0.937880 160 107 63 1.000000
0.129022 -0.057000 0.322366 0.000000 0.999222 -0.039451 255 255 255 1.000000
0.307303 -0.060854 0.224761 0.000000 0.999222 -0.039451 255 255 255 1.000000
-0.089442 -0.027401 0.523011 0.000000 0.039451 0.999222 0 0 0 1.000000
0.243583 -0.078750 -0.228523 0.000000 0.999222 -0.039451 255 255 255 1.000000
0.350486 -0.111708 0.483645 1.000000 0.000000 0.000000 145 86 30 1.000000
-0.320416 -0.072660 -0.074275 0.000000 -0.999222 0.039451 255 255 255 1.000000
0.400311 -0.093648 0.029660 -1.000000 0.000000 0.000000 147 97 46 1.000000
0.146546 -0.005341 0.390394 0.000000 0.999222 -0.039451 255 255 255 1.000000
0.373174 -0.164468 -0.065564 0.000000 -0.997855 0.065467 117 63 11 1.000000
0.085030 -0.056444 0.336454 0.000000 -0.999222 0.039451 255 255 255 1.000000
-0.402215 -0.713852 0.500862 1.000000 0.000000 0.000000 138 79 27 1.000000
0.350486 -0.127593 0.257737 1.000000 0.000000 0.000000 128 87 30 1.000000
0.251233 -0.025732 -0.126085 0.000000 -0.999222 0.039451 255 255 255 1.000000
-0.344536 0.001934 0.519219 0.000000 -0.793641 -0.608387 255 255 255 1.000000
-0.228068 -0.093989 0.486499 0.000000 0.000000 -1.000000 137 92 37 1.000000
-0.055745 0.562020 -0.319425 0.000000 -0.965926 0.258819 129 75 25 1.000000
0.046300 -0.058541 0.283334 0.000000 -0.999222 0.039451 255 255 255 1.000000
0.124033 -0.020114 0.016206 0.000000 -0.999222 0.039451 255 255 255 1.000000
0.101562 -0.017961 0.070738 0.000000 0.999222 -0.039451 255 255 255 1.000000
0.235934 -0.124917 -0.323763 0.000000 -0.123473 0.992348 156 88 39 1.000000
-0.248773 -0.090029 0.522087 0.000000 0.000000 1.000000 163 108 55 1.000000
-0.380784 -0.244548 -0.266700 0.000000 0.112280 -0.993677 149 101 43 1.000000
0.368353 0.170126 -0.226216 0.000000 0.002547 0.999997 145 89 40 1.000000
-0.208892 -0.071376 -0.041740 0.000000 0.999222 -0.039451 255 255 255 1.000000
0.350486 -0.070587 0.317803 -1.000000 0.000000 0.000000 150 94 49 1.000000
0.275020 0.028936 0.018209 0.000000 -0.999222 0.039451 255 255 255 1.000000
-0.308877 -0.048243 -0.319805 0.000000 0.039451 0.999222 255 255 255 1.000000
0.174021 -0.028507 -0.196350 0.000000 -0.999222 0.039451 255 255 255 1.000000
0.369803 -0.536750 0.523865 0.000000 0.000000 -1.000000 179 124 69 1.000000
-0.168768 -0.051833 0.453244 0.000000 0.999222 -0.039451 255 255 255 1.000000
0.054568 0.038174 0.252193 0.000000 0.999222 -0.039451 0 0 0 1.000000
0.374470 -0.256624 0.523865 0.000000 0.000000 -1.000000 145 96 41 1.000000
-0.373758 0.015028 0.306746 -0.639223 0.768423 -0.030338 0 0 0 1.000000
0.365825 -0.135768 0.371873 0.000000 -0.997855 0.065467 161 107 49 1.000000
0.400311 -0.084068 0.457702 1.000000 0.000000 0.000000 142 92 43 1.000000
-0.144068 0.576358 -0.346389 -0.072385 -0.258140 -0.963392 146 85 27 1.000000
0.193943 -0.072243 -0.063714 0.000000 0.999222 -0.039451 255 255 255 1.000000
0.052014 0.033083 0.123232 0.000000 0.999222 -0.039451 0 0 0 1.000000
-0.211381 -0.001126 0.497159 0.000000 0.999222 -0.039451 255 255 255 1.000000
-0.026061 0.032438 0.106897 0.000000 -0.999222 0.039451 255 255 255 1.000000
-0.380851 0.367584 -0.240516 0.000000 -0.135298 -0.990805 165 111 51 1.000000
-0.022779 0.026073 -0.054299 0.000000 0.999222 -0.039451 0 0 0 1.000000
-0.372906 -0.437248 0.523865 0.000000 0.000000 -1.000000 146 94 33 1.000000
-0.277056 0.350379 -0.283437 0.149791 0.152965 0.976813 158 98 36 1.000000
0.014913 -0.047486 -0.319835 0.000000 -0.039451 -0.999222 0 0 0 1.000000
0.207097 0.023870 -0.110091 0.000000 -0.999222 0.039451 255 255 255 1.000000
0.209051 -0.001312 0.492452 0.000000 0.999222 -0.039451 255 255 255 1.000000
0.383649 -0.160631 -0.007081 0.000000 -0.997855 0.065467 140 86 26 1.000000
0.368905 -0.589648 -0.353568 0.000000 0.056407 -0.998408 161 107 49 1.000000
0.119353 -0.055815 0.352376 0.000000 0.999222 -0.039451 255 255 255 1.000000
0.244542 -0.062366 0.186448 0.000000 0.999222 -0.039451 255 255 255 1.000000
0.331379 -0.028201 -0.188622 0.000000 0.999222 -0.039451 255 255 255 1.000000
0.171657 -0.055431 0.362106 0.000000 -0.999222 0.039451 255 255 255 1.000000
-0.235391 0.451412 -0.304380 0.000000 -0.980271 0.197657 145 89 42 1.000000
-0.402215 -0.050402 -0.014203 1.000000 0.000000 0.000000 255 255 255 1.000000
-0.385192 -0.498065 -0.348394 0.000000 -0.056407 0.998408 140 86 34 1.000000
-0.342978 0.021974 -0.158131 0.000000 -0.999222 0.039451 255 255 255 1.000000
-0.114532 -0.117012 0.522087 0.000000 0.000000 1.000000 142 83 31 1.000000
0.231031 -0.005510 0.386107 0.000000 -0.999222 0.039451 255 255 255 1.000000
0.027223 -0.154060 -0.291849 0.000000 0.121417 -0.992602 143 80 25 1.000000
-0.352390 0.173636 -0.247709 1.000000 0.000000 0.000000 120 57 14 1.000000
0.400311 -0.126278 0.250716 1.000000 0.000000 0.000000 157 89 40 1.000000
0.166781 -0.031045 -0.260639 0.000000 -0.999222 0.039451 255 255 255 1.000000
0.385976 -0.063465 0.523865 0.000000 0.000000 -1.000000 152 101 42 1.000000
-0.182010 -0.080698 -0.277871 0.000000 0.999222 -0.039451 255 255 255 1.000000
-0.385496 0.527741 -0.336510 0.000000 -0.163768 -0.986499 163 102 46 1.000000
-0.254763 -0.022013 -0.031873 0.000000 0.999222 -0.039451 255 255 255 1.000000
-0.024973 0.029022 0.020394 0.000000 -0.999222 0.039451 255 255 255 1.000000
-0.075365 -0.075427 -0.318732 0.000000 -0.039451 -0.999222 0 0 0 1.000000
0.400311 0.040190 -0.251458 1.000000 0.000000 0.000000 169 107 57 1.000000
-0.402215 -0.032355 0.467402 1.000000 0.000000 0.000000 255 255 255 1.000000
0.374874 -0.780004 -0.327204 0.000000 0.112280 -0.993677 154 92 41 1.000000
0.253434 -0.096099 0.486499 0.000000 0.000000 -1.000000 139 77 26 1.000000
-0.133217 -0.014896 0.148372 0.000000 -0.999222 0.039451 255 255 255 1.000000
0.263948 -0.131786 -0.324617 0.000000 -0.123473 0.992348 143 80 25 1.000000
-0.402215 -0.040788 0.258400 -1.000000 0.000000 0.000000 0 0 0 1.000000
-0.064658 0.043854 0.396042 0.000000 0.999222 -0.039451 0 0 0 1.000000
0.386185 0.516515 -0.334525 0.000000 -0.158812 -0.987309 162 101 42 1.000000
-0.125411 -0.002852 -0.245436 0.000000 -0.926021 0.377472 0 0 0 1.000000
0.361160 0.570882 -0.282060 0.000000 0.261510 0.965201 169 115 57 1.000000
-0.051605 -0.007312 0.340461 0.000000 0.999222 -0.039451 255 255 255 1.000000
0.400311 -0.100626 -0.214049 1.000000 0.000000 0.000000 146 97 42 1.000000
-0.094804 0.711690 -0.360479 -0.050918 -0.344851 -0.937276 129 78 34 1.000000
0.043213 -0.075994 -0.158726 0.000000 -0.999222 0.039451 255 255 255 1.000000
-0.028777 -0.000824 0.504808 0.000000 -0.999222 0.039451 255 255 255 1.000000
-0.250616 -0.065019 0.119256 0.000000 0.999222 -0.039451 255 255 255 1.000000
0.358022 0.684059 -0.317205 0.000000 -0.328219 -0.944602 154 99 46 1.000000
0.350486 -0.352571 -0.322777 -1.000000 0.000000 0.000000 145 90 37 1.000000
0.387014 -0.123993 0.462993 0.000000 0.018776 0.999824 155 104 47 1.000000
-0.087743 -0.050959 0.475373 0.000000 0.999222 -0.039451 255 255 255 1.000000
-0.340329 -0.005276 0.392050 0.000000 0.999222 -0.039451 255 255 255 1.000000
-0.402215 -0.137810 -0.079371 1.000000 0.000000 0.000000 152 87 33 1.000000
-0.369606 -0.159869 0.004524 0.000000 0.997855 -0.065467 156 101 46 1.000000
0.306092 0.360209 -0.247567 0.162871 -0.152645 -0.974768 131 75 26 1.000000
-0.319000 -0.063012 0.170085 0.000000 0.999222 -0.039451 255 255 255 1.000000
0.137180 0.723659 -0.379743 0.000000 -0.938493 0.345298 125 76 45 1.000000
-0.317089 -0.059288 0.264413 0.000000 0.999222 -0.039451 255 255 255 1.000000
-0.209029 -0.001399 0.521985 0.000000 -0.039451 -0.999222 255 255 255 1.000000
0.003762 0.668823 -0.374182 0.000000 -0.938493 0.345298 132 81 37 1.000000
-0.361300 0.304688 -0.310799 0.000000 0.065487 0.997853 147 92 40 1.000000
-0.352390 -0.724847 0.493979 -1.000000 0.000000 0.000000 158 105 41 1.000000
-0.092335 -0.023594 -0.071930 0.000000 0.999222 -0.039451 255 255 255 1.000000
-0.297325 0.456013 -0.281560 0.000000 -0.980271 0.197657 150 94 45 1.000000
-0.076660 0.482459 -0.326075 0.041073 0.197490 0.979444 133 83 42 1.000000
0.145581 -0.054337 0.389817 0.000000 -0.999222 0.039451 255 255 255 1.000000
0.366742 -0.269018 0.465716 0.000000 -0.018776 -0.999824 141 91 42 1.000000
0.384319 -0.156197 0.060494 0.000000 -0.997855 0.065467 129 78 34 1.000000
-0.359641 -0.510338 0.523865 0.000000 0.000000 1.000000 137 82 29 1.000000
-0.402215 -0.230051 -0.310122 1.000000 0.000000 0.000000 134 80 30 1.000000
0.400311 -0.124410 -0.298191 1.000000 0.000000 0.000000 136 74 23 1.000000
-0.256896 -0.177164 -0.303635 0.000000 -1.000000 0.000000 153 90 35 1.000000
-0.327219 -0.057187 0.317627 0.000000 -0.999222 0.039451 255 255 255 1.000000
0.214737 0.046065 0.452046 0.000000 0.999222 -0.039451 0 0 0 1.000000
0.176234 0.037621 0.238170 0.000000 -0.999222 0.039451 255 255 255 1.000000
0.369541 -0.350372 0.467244 0.000000 -0.018776 -0.999824 152 97 44 1.000000
-0.011664 -0.055478 0.360928 0.000000 0.999222 -0.039451 255 255 255 1.000000
-0.359524 -0.031739 -0.278209 0.000000 0.999222 -0.039451 255 255 255 1.000000
0.302145 -0.063934 0.146733 0.000000 0.999222 -0.039451 255 255 255 1.000000
0.256358 -0.004718 0.406181 0.000000 -0.999222 0.039451 255 255 255 1.000000
-0.352390 -0.171396 -0.182531 -1.000000 0.000000 0.000000 129 74 22 1.000000
-0.364583 -0.161085 -0.256159 0.000000 -0.174088 0.984730 143 89 37 1.000000
-0.172545 -0.001231 0.494493 0.000000 0.999222 -0.039451 255 255 255 1.000000
0.225794 0.684148 -0.377913 -0.123007 0.342676 0.931366 159 106 62 1.000000
-0.355481 -0.762169 -0.363315 0.000000 0.056407 -0.998408 149 94 42 1.000000
0.350486 0.353089 -0.282605 -1.000000 0.000000 0.000000 146 91 36 1.000000
0.400311 -0.028353 0.242753 -1.000000 0.000000 0.000000 255 255 255 1.000000
0.158649 -0.004022 0.423792 0.000000 -0.999222 0.039451 255 255 255 1.000000
0.343761 -0.032617 -0.300455 0.000000 0.999222 -0.039451 255 255 255 1.000000
0.312686 -0.054187 0.393609 0.000000 0.999222 -0.039451 255 255 255 1.000000
0.399437 -0.050998 0.474393 0.000000 0.999222 -0.039451 255 255 255 1.000000
-0.209093 -0.058728 0.278595 0.000000 0.999222 -0.039451 255 255 255 1.000000
-0.286456 0.687148 -0.370236 -0.154884 -0.341131 -0.927168 132 78 30 1.000000
-0.400304 -0.020751 0.522749 0.000000 -0.039451 -0.999222 255 255 255 1.000000
0.350486 -0.350452 0.495906 1.000000 0.000000 0.000000 130 75 22 1.000000
-0.402215 0.272381 -0.301270 -1.000000 0.000000 0.000000 144 91 37 1.000000
0.089142 -0.069774 -0.001164 0.000000 -0.999222 0.039451 255 255 255 1.000000
0.385946 -0.006716 -0.233534 0.000000 -0.097000 0.995284 160 106 48 1.000000
0.043553 0.025352 -0.072558 0.000000 -0.999222 0.039451 255 255 255 1.000000
-0.352390 -0.113129 -0.070651 -1.000000 0.000000 0.000000 147 93 33 1.000000
0.216272 -0.004974 0.399682 0.000000 0.999222 -0.039451 255 255 255 1.000000
-0.080068 0.023595 0.490963 0.000000 -0.793641 -0.608387 255 255 255 1.000000
0.350486 -0.766991 -0.346424 -1.000000 0.000000 0.000000 160 97 44 1.000000
-0.266538 -0.051249 0.468041 0.000000 -0.999222 0.039451 255 255 255 1.000000
-0.383410 -0.002964 0.054399 0.639223 -0.768423 0.030338 255 255 255 1.000000
0.317250 -0.010838 -0.265027 0.000000 -0.926021 0.377472 0 0 0 1.000000
0.037709 -0.083391 0.522087 0.000000 0.000000 1.000000 135 77 25 1.000000
-0.352390 0.706199 -0.325542 -1.000000 0.000000 0.000000 146 91 38 1.000000
0.325624 0.587147 -0.291691 -0.168178 0.255132 0.952168 154 102 49 1.000000
0.095957 0.676305 -0.387120 -0.052576 0.344821 0.937195 148 89 37 1.000000
0.178365 -0.000698 0.507999 0.000000 -0.999222 0.039451 255 255 255 1.000000
0.277347 -0.028389 -0.193368 0.000000 0.999222 -0.039451 255 255 255 1.000000
0.369335 -0.054103 0.395758 0.000000 -0.999222 0.039451 255 255 255 1.000000
-0.376558 0.443848 -0.324092 0.000000 -0.126076 -0.992021 137 77 27 1.000000
-0.181987 -0.050310 0.491829 0.000000 -0.999222 0.039451 255 255 255 1.000000
-0.352390 -0.003984 -0.287713 1.000000 0.000000 0.000000 162 101 43 1.000000
-0.402215 -0.020606 0.376415 1.000000 0.000000 0.000000 255 255 255 1.000000
-0.032710 -0.032128 -0.288068 0.000000 0.999222 -0.039451 255 255 255 1.000000
0.110617 -0.061264 0.214363 0.000000 0.999222 -0.039451 255 255 255 1.000000
-0.232417 -0.071302 -0.039869 0.000000 0.999222 -0.039451 255 255 255 1.000000
0.399018 0.301662 -0.310577 0.000000 -0.064153 -0.997940 137 82 29 1.000000
0.400311 -0.113045 0.440793 -1.000000 0.000000 0.000000 146 94 43 1.000000
0.400311 0.180855 -0.254429 1.000000 0.000000 0.000000 158 95 48 1.000000
-0.073630 -0.053575 0.409111 0.000000 0.999222 -0.039451 255 255 255 1.000000
0.266806 0.339646 -0.272830 0.000000 -0.987960 0.154710 142 92 43 1.000000
-0.115110 -0.032578 -0.299456 0.000000 -0.999222 0.039451 255 255 255 1.000000
-0.352390 -0.087618 0.130580 1.000000 0.000000 0.000000 149 96 48 1.000000
-0.402215 -0.163404 -0.095998 1.000000 0.000000 0.000000 142 77 25 1.000000
0.363872 -0.807084 0.493195 0.000000 1.000000 0.000000 139 83 34 1.000000
0.358250 0.377343 -0.242067 0.000000 0.141371 0.989957 156 102 41 1.000000
-0.382776 -0.006007 -0.036040 -0.639223 0.768423 -0.030338 0 0 0 1.000000
0.150697 0.041899 0.346528 0.000000 0.999222 -0.039451 0 0 0 1.000000
0.219454 0.024948 -0.082800 0.000000 0.999222 -0.039451 0 0 0 1.000000
0.350486 0.259733 -0.280511 -1.000000 0.000000 0.000000 138 82 45 1.000000
0.185707 -0.029702 -0.226628 0.000000 0.999222 -0.039451 255 255 255 1.000000
0.071539 0.374231 -0.293514 0.000000 0.987960 -0.154710 162 110 59 1.000000
0.400311 -0.062142 0.501812 -1.000000 0.000000 0.000000 160 105 52 1.000000
-0.233249 -0.017051 0.093791 0.000000 -0.999222 0.039451 255 255 255 1.000000
0.359389 0.023595 0.261102 0.639223 0.768423 -0.030338 0 0 0 1.000000
-0.175031 -0.051216 0.468860 0.000000 0.999222 -0.039451 255 255 255 1.000000
-0.233451 -0.010545 0.258596 0.000000 -0.999222 0.039451 255 255 255 1.000000
0.068479 -0.057759 0.303144 0.000000 0.999222 -0.039451 255 255 255 1.000000
-0.204448 -0.063371 0.160993 0.000000 0.999222 -0.039451 255 255 255 1.000000
-0.207989 0.045042 0.426132 0.000000 0.999222 -0.039451 0 0 0 1.000000
-0.290489 -0.080771 -0.279706 0.000000 -0.999222 0.039451 255 255 255 1.000000
0.238171 -0.003962 0.425317 0.000000 -0.999222 0.039451 255 255 255 1.000000
0.004405 -0.027811 -0.178743 0.000000 -0.999222 0.039451 255 255 255 1.000000
-0.402215 0.298438 -0.234337 -1.000000 0.000000 0.000000 144 94 45 1.000000
-0.323398 0.035253 0.178203 0.000000 0.999222 -0.039451 0 0 0 1.000000
0.320252 -0.072283 -0.064722 0.000000 0.999222 -0.039451 255 255 255 1.000000
-0.352390 0.136087 -0.245433 1.000000 0.000000 0.000000 161 99 49 1.000000
0.210690 0.021668 -0.165870 0.000000 -0.999222 0.039451 255 255 255 1.000000
-0.366378 0.232208 -0.228128 0.000000 0.063592 0.997976 138 78 28 1.000000
-0.387284 -0.076208 -0.164147 0.000000 0.999222 -0.039451 136 76 30 1.000000
-0.365916 -0.057055 0.320967 0.000000 -0.999222 0.039451 125 74 30 1.000000
-0.241593 -0.025431 -0.300827 0.000000 0.926021 -0.377472 0 0 0 1.000000
-0.220298 -0.049602 0.509761 0.000000 -0.999222 0.039451 159 97 47 1.000000
0.251845 -0.077687 -0.201609 0.000000 0.999222 -0.039451 255 255 255 1.000000
-0.241283 -0.061339 0.212478 0.000000 0.999222 -0.039451 255 255 255 1.000000
0.400311 -0.020704 0.376499 -1.000000 0.000000 0.000000 255 255 255 1.000000
0.022962 -0.078476 -0.221592 0.000000 -0.999222 0.039451 255 255 255 1.000000
-0.042384 0.691679 -0.355200 0.022478 0.345211 0.938256 143 91 53 1.000000
-0.316504 -0.076088 0.486499 0.000000 0.000000 -1.000000 124 77 22 1.000000
0.261834 0.464772 -0.304844 0.142569 -0.195638 -0.970258 139 88 44 1.000000
-0.402215 -0.248998 -0.285614 1.000000 0.000000 0.000000 143 89 39 1.000000
0.121293 0.343129 -0.266956 -0.066315 0.154370 0.985785 143 90 46 1.000000
-0.402215 -0.390590 -0.321760 -1.000000 0.000000 0.000000 140 85 33 1.000000
0.385346 -0.066650 0.077951 0.000000 0.999222 -0.039451 127 78 23 1.000000
0.238986 -0.028930 -0.207088 0.000000 0.999222 -0.039451 255 255 255 1.000000
0.219696 -0.006416 0.363167 0.000000 -0.999222 0.039451 255 255 255 1.000000
-0.205163 0.019730 -0.190038 0.000000 0.926021 -0.377472 0 0 0 1.000000
0.385360 -0.072870 -0.079594 0.000000 -0.999222 0.039451 255 255 255 1.000000
-0.042169 -0.030174 -0.238582 0.000000 -0.999222 0.039451 255 255 255 1.000000
-0.249704 -0.008202 0.317943 0.000000 0.999222 -0.039451 255 255 255 1.000000
0.034030 -0.177164 -0.309608 0.000000 1.000000 0.000000 149 100 45 1.000000
-0.058248 -0.009951 0.273637 0.000000 -0.999222 0.039451 255 255 255 1.000000
0.314703 -0.158286 -0.327915 0.000000 0.123473 -0.992348 143 80 23 1.000000
-0.402215 -0.116594 0.454974 1.000000 0.000000 0.000000 131 74 19 1.000000
0.358144 0.501294 -0.264782 0.000000 0.218306 0.975880 150 88 27 1.000000
-0.289151 -0.023711 -0.074881 0.000000 0.999222 -0.039451 255 255 255 1.000000
0.075035 0.032850 0.117352 0.000000 0.999222 -0.039451 0 0 0 1.000000
0.350486 -0.552483 0.506218 1.000000 0.000000 0.000000 141 82 30 1.000000
-0.212316 -0.100569 0.486499 0.000000 0.000000 1.000000 138 91 36 1.000000
0.387642 -0.237229 -0.333657 0.000000 0.056407 -0.998408 152 100 46 1.000000
0.378483 -0.233101 0.523865 0.000000 0.000000 1.000000 148 100 42 1.000000
-0.065424 -0.010224 -0.263522 0.000000 0.926021 -0.377472 0 0 0 1.000000
-0.352390 -0.516286 -0.313518 -1.000000 0.000000 0.000000 139 83 34 1.000000
-0.352390 -0.359186 0.511827 1.000000 0.000000 0.000000 138 84 34 1.000000
0.384497 -0.024943 -0.106096 0.000000 -0.999222 0.039451 255 255 255 1.000000
0.268696 -0.064608 0.486499 0.000000 0.000000 1.000000 129 76 22 1.000000
0.385426 -0.069558 0.004306 0.000000 0.999222 -0.039451 153 99 41 1.000000
-0.371156 -0.677188 0.473381 0.000000 0.018776 0.999824 140 82 31 1.000000
0.260909 -0.020734 0.000519 0.000000 -0.999222 0.039451 255 255 255 1.000000
0.331797 0.494894 -0.266588 -0.169854 0.194785 0.966027 124 70 20 1.000000
0.379205 0.332991 -0.312875 0.000000 0.077960 0.996957 148 85 32 1.000000
0.246306 -0.069825 0.522087 0.000000 0.000000 1.000000 136 86 35 1.000000
0.329887 -0.056483 0.335467 0.000000 -0.999222 0.039451 255 255 255 1.000000
0.101479 0.595269 -0.339716 0.000000 0.965926 -0.258819 143 91 40 1.000000
-0.296595 -0.020983 -0.005791 0.000000 -0.999222 0.039451 255 255 255 1.000000
-0.348990 0.039197 0.397051 0.639223 -0.768423 0.030338 255 255 255 1.000000
-0.121910 -0.129383 -0.324318 0.000000 -0.123473 0.992348 136 78 42 1.000000
0.102758 -0.119746 -0.287652 0.000000 -0.121417 0.992602 144 80 31 1.000000
0.005860 0.035700 0.189536 0.000000 0.999222 -0.039451 0 0 0 1.000000
0.128063 -0.027883 -0.180565 0.000000 0.999222 -0.039451 255 255 255 1.000000
0.350486 -0.737806 -0.342457 1.000000 0.000000 0.000000 159 92 33 1.000000
0.117293 -0.076259 -0.165431 0.000000 -0.999222 0.039451 255 255 255 1.000000
0.213767 -0.063458 0.158796 0.000000 -0.999222 0.039451 255 255 255 1.000000
-0.316229 -0.067785 0.049208 0.000000 0.999222 -0.039451 255 255 255 1.000000
0.149747 -0.140816 -0.290229 0.000000 -0.121417 0.992602 130 80 31 1.000000
-0.215297 0.037715 0.240561 0.000000 -0.999222 0.039451 255 255 255 1.000000
0.398953 -0.690275 -0.317065 0.000000 -0.112280 0.993677 134 75 23 1.000000
0.258017 -0.011336 0.238544 0.000000 -0.999222 0.039451 255 255 255 1.000000
-0.402215 -0.012625 -0.234069 1.000000 0.000000 0.000000 141 86 33 1.000000
0.359902 0.024196 0.287127 -0.639223 -0.768423 0.030338 255 255 255 1.000000
0.193391 -0.097001 -0.284869 0.000000 0.121417 -0.992602 140 87 39 1.000000
-0.043801 0.023616 -0.116533 0.000000 0.999222 -0.039451 0 0 0 1.000000
0.288361 -0.060301 0.238755 0.000000 -0.999222 0.039451 255 255 255 1.000000
0.193131 0.675367 -0.356397 0.000000 0.938493 -0.345298 123 80 36 1.000000
0.001560 -0.016555 0.106352 0.000000 -0.999222 0.039451 255 255 255 1.000000
0.076691 0.555592 -0.344920 -0.042123 0.258589 0.965068 157 105 54 1.000000
-0.050039 0.041412 0.334209 0.000000 0.999222 -0.039451 0 0 0 1.000000
0.174986 0.564891 -0.308709 0.000000 0.965926 -0.258819 143 92 48 1.000000
-0.388683 -0.074911 -0.131275 0.000000 -0.999222 0.039451 255 255 255 1.000000
-0.402215 -0.294492 0.481048 -1.000000 0.000000 0.000000 136 88 38 1.000000
-0.020572 -0.076261 -0.165480 0.000000 -0.999222 0.039451 255 255 255 1.000000
-0.136653 -0.016014 0.120067 0.000000 -0.999222 0.039451 255 255 255 1.000000
