ply
format ascii 1.0
element vertex 1257
property float x
property float y
property float z
property uchar red
property uchar green
property uchar blue
end_header
0.140825 0.163487 -0.263103 255 0 0
-0.305847 -0.535826 0.450953 153 0 76
-0.231702 0.003875 0.298225 204 51 127
0.252239 0.562301 -0.325860 255 0 0
-0.061801 0.616032 -0.366010 255 0 0
0.315338 -0.085373 -0.115923 204 51 127
0.387234 0.200459 -0.045568 153 0 76
0.277596 -0.271991 -0.172361 153 76 0
-0.347940 -0.029934 -0.262203 204 51 127
0.294308 -0.464867 -0.142983 153 76 0
-0.295108 -0.300123 0.343742 153 0 76
0.014230 0.068015 -0.249686 255 0 0
0.113559 -0.084209 0.169703 204 51 127
0.108334 -0.032701 0.477054 204 51 127
-0.264787 0.386453 -0.318219 255 0 0
-0.024230 0.018939 0.073454 204 51 127
-0.117052 0.112833 -0.327660 255 0 0
-0.394261 0.346305 0.137354 153 0 76
-0.198650 0.009285 -0.034547 204 51 127
0.144617 -0.084209 -0.008557 204 51 127
-0.348507 -0.035838 0.196981 204 51 127
-0.200865 -0.004167 0.398438 204 51 127
-0.302590 0.027051 -0.307721 255 0 0
-0.130477 -0.084209 0.283746 204 51 127
0.208314 -0.084209 0.204544 204 51 127
-0.109124 0.420539 -0.363017 255 0 0
0.270972 -0.471206 -0.122804 153 76 0
-0.251066 0.001205 0.293323 204 51 127
-0.348554 -0.079110 0.393483 204 51 127
-0.272069 -0.084209 0.005007 204 51 127
0.066656 0.013445 -0.029503 204 51 127
0.290727 -0.236272 -0.176981 153 76 0
-0.097526 -0.084209 0.086774 204 51 127
-0.225192 -0.004493 -0.177227 204 51 127
-0.083863 -0.083961 -0.225302 204 51 127
0.026913 -0.084209 0.169512 204 51 127
-0.157988 0.447711 -0.371028 255 0 0
-0.271885 -0.002047 0.000891 204 51 127
0.012601 0.549490 -0.317352 255 0 0
0.272325 0.347096 -0.297748 76 0 153
0.227811 0.671390 -0.334489 255 0 0
-0.420301 0.320790 -0.149906 153 0 76
-0.253524 0.055730 -0.247960 255 0 0
-0.075527 0.014126 -0.306256 255 0 0
-0.348284 -0.733344 -0.227985 76 0 153
-0.383401 0.000638 -0.051902 153 76 0
0.213736 0.055597 -0.315128 255 0 0
-0.228492 -0.025805 -0.300566 255 0 0
0.200971 0.543984 -0.380450 255 0 0
-0.313842 0.717643 -0.392126 255 0 0
0.172440 -0.084209 0.214719 204 51 127
-0.293344 -0.005065 -0.140955 204 51 127
-0.387906 0.106754 0.259628 76 0 153
-0.266600 -0.004163 0.401325 204 51 127
-0.108281 0.007457 -0.100229 204 51 127
0.090215 -0.084209 -0.091850 204 51 127
0.055163 0.597903 -0.324156 255 0 0
0.061173 0.341362 -0.288102 255 0 0
-0.184139 -0.084209 0.326882 204 51 127
-0.273431 0.560997 -0.323439 255 0 0
0.270946 -0.607285 -0.180525 153 76 0
-0.319170 -0.406197 -0.152909 76 0 153
0.128908 -0.005065 -0.182362 204 51 127
0.275274 -0.259490 0.310911 76 0 153
-0.000952 -0.084209 -0.048190 204 51 127
0.027475 -0.004743 0.407973 204 51 127
-0.233355 0.608771 -0.389710 255 0 0
0.159823 0.009756 -0.073642 204 51 127
0.356348 0.334798 0.195888 76 0 153
0.063094 -0.084209 -0.059196 204 51 127
0.280964 -0.647442 0.319294 76 0 153
0.239501 -0.084203 0.300584 204 51 127
-0.331207 -0.213765 -0.178692 76 0 153
-0.347864 -0.285375 0.331204 153 0 76
-0.178868 0.011607 -0.050354 204 51 127
0.115436 0.001386 0.358353 204 51 127
-0.348540 -0.721802 0.331736 153 0 76
0.288871 -0.343359 0.419119 76 0 153
0.247056 -0.001724 0.197503 204 51 127
-0.174682 -0.002768 0.391521 204 51 127
-0.403916 0.347289 0.274798 153 0 76
0.242656 0.430360 -0.346170 255 0 0
-0.382573 0.118186 0.289105 76 0 153
-0.141701 0.077048 -0.321475 255 0 0
-0.105124 0.003552 0.347758 204 51 127
0.323465 -0.264909 0.367947 76 0 153
0.325685 -0.485615 0.421970 76 0 153
0.100898 0.013530 -0.025044 204 51 127
-0.190550 0.568300 -0.386188 255 0 0
-0.099504 0.551539 -0.382273 255 0 0
-0.156790 0.202315 -0.334541 255 0 0
-0.081651 -0.057505 -0.286973 204 51 127
-0.430887 0.214872 0.285813 76 0 153
0.325728 -0.651290 0.341550 76 0 153
-0.265787 0.489593 -0.328346 255 0 0
-0.153900 -0.007349 -0.302920 255 0 0
-0.274263 0.548024 -0.376121 255 0 0
0.323107 -0.084610 -0.220277 204 51 127
-0.067418 0.014816 0.004089 204 51 127
-0.250301 0.028293 -0.308941 255 0 0
0.271602 -0.621664 -0.162713 153 76 0
-0.161694 -0.084209 -0.168359 204 51 127
0.398057 0.347243 0.092196 76 0 153
0.030386 0.469336 -0.369875 255 0 0
-0.208455 0.007757 0.201795 204 51 127
-0.326368 -0.379269 -0.164562 76 0 153
0.035480 0.282578 -0.348694 255 0 0
-0.353061 0.322790 -0.208881 153 0 76
0.261305 -0.004015 0.167220 204 51 127
-0.293821 -0.608705 -0.156722 76 0 153
-0.239221 0.285861 -0.344137 255 0 0
-0.320875 -0.009040 0.124570 204 51 127
-0.177377 0.228827 -0.272402 255 0 0
0.017537 0.013035 0.268960 204 51 127
0.240208 0.168418 -0.331964 255 0 0
-0.093155 -0.084209 0.276821 204 51 127
0.181132 -0.084209 0.150350 204 51 127
-0.265215 -0.007445 0.426848 204 51 127
-0.193936 0.589438 -0.322967 255 0 0
0.016103 -0.084209 -0.073357 204 51 127
0.401539 0.347153 0.201567 76 0 153
0.052123 -0.084209 -0.144845 204 51 127
0.306912 -0.010746 0.216283 204 51 127
0.325734 -0.477119 -0.110522 153 76 0
0.012354 0.323417 -0.356142 255 0 0
-0.395258 0.314861 0.309953 153 0 76
0.252624 0.543479 -0.359159 255 0 0
0.215310 0.687151 -0.378701 255 0 0
-0.342346 -0.013687 -0.128897 204 51 127
0.325631 -0.064111 0.183050 204 51 127
0.253314 0.240982 -0.311836 255 0 0
0.168660 0.009798 0.157612 204 51 127
0.320654 -0.543503 0.387957 76 0 153
-0.133949 0.014484 0.023871 204 51 127
-0.297034 -0.338575 0.358967 153 0 76
-0.062516 0.595353 -0.394425 255 0 0
-0.044124 0.251200 -0.339296 255 0 0
-0.091557 0.148917 -0.328501 255 0 0
0.322778 -0.675807 0.310095 76 0 153
0.290682 -0.521011 -0.087383 153 76 0
-0.302518 -0.252802 -0.175548 76 0 153
-0.395292 0.317814 0.033044 153 0 76
-0.068211 0.342198 -0.288219 255 0 0
0.159597 0.006399 -0.104537 204 51 127
0.324701 -0.408877 -0.132732 153 76 0
-0.415033 0.240679 0.259566 76 0 153
0.054949 0.017418 0.105236 204 51 127
-0.304158 -0.031368 -0.301658 255 0 0
-0.385728 0.341999 0.064489 153 0 76
0.325721 -0.679808 -0.211423 153 76 0
-0.289745 0.167363 -0.285667 255 0 0
0.180671 0.446626 -0.302895 255 0 0
0.133850 0.317307 -0.356535 255 0 0
0.300467 -0.527399 0.454791 76 0 153
-0.293770 -0.506799 0.415392 153 0 76
0.168149 0.074862 -0.250648 255 0 0
0.301979 -0.645729 0.381999 76 0 153
0.278281 -0.006814 0.377591 204 51 127
0.180283 -0.084209 0.105609 204 51 127
0.202458 -0.084209 -0.081573 204 51 127
0.049637 0.099410 -0.322053 255 0 0
-0.214657 0.594423 -0.323667 255 0 0
-0.128487 0.002851 -0.132040 204 51 127
0.305735 0.317769 -0.324196 76 0 153
0.092697 -0.084209 -0.054280 204 51 127
0.086670 -0.006799 -0.211017 204 51 127
-0.053104 0.464240 -0.376275 255 0 0
-0.340487 -0.050457 -0.290830 204 51 127
0.307804 0.763924 -0.382426 255 0 0
0.162257 0.250367 -0.275438 255 0 0
-0.259701 0.276836 -0.342471 255 0 0
0.243618 -0.001463 0.133670 204 51 127
-0.385009 0.346921 -0.076810 153 0 76
0.198915 0.649423 -0.331425 255 0 0
-0.211477 -0.084209 0.237920 204 51 127
0.052791 -0.084209 -0.113973 204 51 127
0.271041 -0.778777 0.350751 76 0 153
-0.380048 0.334856 0.092533 153 0 76
-0.307067 -0.484169 -0.143606 76 0 153
-0.335018 -0.127018 -0.159618 76 0 153
0.258918 0.729675 -0.352501 255 0 0
0.001172 -0.005448 0.412906 204 51 127
-0.338508 0.331555 -0.246381 153 0 76
0.352157 0.011275 -0.075590 153 0 76
0.348988 0.314823 -0.080423 76 0 153
-0.283268 -0.003263 0.099387 204 51 127
-0.121554 -0.084209 -0.104265 204 51 127
-0.009113 0.004234 -0.122793 204 51 127
0.270948 -0.263865 0.350205 76 0 153
-0.108977 -0.061455 0.478132 204 51 127
-0.348291 -0.409082 -0.119582 76 0 153
-0.002113 0.005544 0.330050 204 51 127
0.130975 0.144854 -0.260487 255 0 0
0.270872 -0.051475 0.479715 204 51 127
0.357831 0.346414 0.277468 76 0 153
-0.212194 -0.084209 0.149547 204 51 127
-0.387451 0.244823 -0.045778 153 76 0
-0.120187 -0.045394 0.479875 204 51 127
-0.135397 0.010127 0.302774 204 51 127
-0.116915 -0.084209 -0.083274 204 51 127
0.325353 -0.245844 0.319388 76 0 153
-0.327615 -0.263242 0.309226 153 0 76
-0.096334 0.253992 -0.341725 255 0 0
0.221053 0.002482 0.202116 204 51 127
-0.028788 -0.011257 0.452620 204 51 127
-0.324869 -0.558055 0.441536 153 0 76
0.396039 0.115351 -0.066837 153 0 76
0.363156 0.267703 -0.045731 153 0 76
0.085392 0.015573 0.120516 204 51 127
0.361005 0.317799 -0.116067 76 0 153
-0.112985 0.008339 0.315337 204 51 127
-0.333894 -0.190318 0.303348 153 0 76
0.394496 0.320607 -0.192366 76 0 153
-0.076627 -0.084209 -0.027304 204 51 127
0.309333 -0.166449 -0.173896 153 76 0
-0.418305 0.346182 -0.057545 153 0 76
0.109302 -0.084209 0.011840 204 51 127
-0.229281 0.090113 -0.316659 255 0 0
0.325578 -0.078718 -0.152484 204 51 127
0.289627 -0.758872 0.305270 76 0 153
-0.243739 0.002698 0.261843 204 51 127
-0.346573 -0.775887 -0.180441 76 0 153
0.306802 -0.006884 -0.091510 204 51 127
-0.303015 -0.069700 -0.275336 204 51 127
-0.170767 0.252162 -0.346444 255 0 0
0.322437 -0.810970 0.325541 76 0 153
-0.182475 -0.008452 0.430718 204 51 127
0.305831 -0.084050 0.096669 204 51 127
0.370856 0.346062 0.177662 76 0 153
-0.171464 0.461391 -0.376370 255 0 0
0.270861 -0.667697 -0.198945 153 76 0
0.105983 0.609594 -0.395046 255 0 0
0.023801 0.614581 -0.331571 255 0 0
-0.067202 -0.001728 -0.158151 204 51 127
0.074785 -0.084209 0.135694 204 51 127
-0.426522 0.346979 0.107051 153 0 76
0.322454 -0.341307 0.357282 76 0 153
0.045333 -0.084209 -0.072370 204 51 127
0.248329 -0.087751 0.369696 204 51 127
0.325561 -0.052809 0.042207 204 51 127
-0.394115 0.318368 0.463900 153 0 76
0.328190 -0.010859 -0.029663 153 0 76
0.325432 -0.743082 -0.231416 153 76 0
0.372005 0.346495 0.099797 76 0 153
-0.237884 -0.084206 -0.163105 204 51 127
-0.278980 -0.092133 -0.153716 204 51 127
0.291887 0.762303 -0.395843 255 0 0
-0.293678 -0.691115 0.329614 153 0 76
0.272787 -0.079155 -0.256841 204 51 127
0.057884 -0.084209 0.232648 204 51 127
0.362534 0.138766 0.289116 204 51 127
-0.293833 -0.773684 -0.217613 76 0 153
-0.348555 -0.069211 -0.162757 204 51 127
0.325310 -0.059802 -0.255939 204 51 127
-0.149091 -0.006873 -0.193378 204 51 127
-0.394061 0.316768 0.225307 153 0 76
-0.093288 0.001976 -0.135805 204 51 127
0.287904 0.703480 -0.381700 255 0 0
0.306414 0.764301 -0.362765 255 0 0
-0.172758 0.004051 -0.124070 204 51 127
-0.210302 0.401150 -0.296507 255 0 0
-0.237158 0.072182 -0.250271 255 0 0
-0.141955 0.013394 0.165681 204 51 127
0.211466 0.443295 -0.302448 255 0 0
-0.409380 0.347252 0.068084 153 0 76
0.117118 0.398708 -0.296183 255 0 0
-0.183128 0.653064 -0.337213 255 0 0
0.209926 -0.003088 0.395781 204 51 127
-0.312374 -0.158013 0.372492 153 0 76
0.214531 0.326485 -0.353719 255 0 0
-0.144529 0.013969 0.205426 204 51 127
0.358915 -0.013592 0.273813 204 51 127
0.292730 -0.352793 -0.181733 153 76 0
-0.094654 0.587949 -0.322759 255 0 0
-0.063646 0.576090 -0.388719 255 0 0
0.033501 0.512756 -0.312223 255 0 0
-0.135697 -0.084209 0.393874 204 51 127
-0.356421 -0.063468 0.258610 76 0 153
-0.322576 -0.572583 -0.111243 76 0 153
-0.168703 0.305497 -0.283061 255 0 0
0.293512 -0.218219 -0.241956 153 76 0
0.318853 0.317578 -0.273295 76 0 153
0.353254 -0.020013 -0.061871 153 0 76
0.274649 -0.283497 0.374050 76 0 153
-0.047304 0.412370 -0.298082 255 0 0
0.311188 0.342478 -0.334289 76 0 153
-0.250935 0.600115 -0.324482 255 0 0
-0.183572 0.006136 0.329180 204 51 127
-0.279436 -0.084209 0.225399 204 51 127
-0.115822 -0.021600 0.471274 204 51 127
-0.304441 -0.216377 0.363357 153 0 76
-0.293687 -0.486080 -0.109515 76 0 153
0.200091 0.005933 -0.054940 204 51 127
0.205984 0.342052 -0.288199 255 0 0
-0.270074 -0.084209 -0.082761 204 51 127
0.325604 -0.770617 -0.216961 153 76 0
-0.086444 0.466130 -0.370662 255 0 0
-0.296176 -0.556305 0.386572 153 0 76
0.022209 -0.084209 0.300893 204 51 127
0.273798 0.688007 -0.338332 255 0 0
-0.348555 -0.061900 0.403883 204 51 127
0.381512 0.259297 -0.075323 153 0 76
-0.067716 -0.084209 0.152329 204 51 127
-0.236594 0.182705 -0.265805 255 0 0
-0.162277 0.538912 -0.388064 255 0 0
0.162995 -0.084209 0.060917 204 51 127
-0.016301 -0.037462 0.478597 204 51 127
0.324231 -0.019824 0.183424 204 51 127
0.125190 -0.084209 0.416649 204 51 127
-0.128055 0.553921 -0.387979 255 0 0
0.167049 0.654469 -0.383805 255 0 0
0.209838 0.169293 -0.263919 255 0 0
0.401566 0.333109 0.337604 76 0 153
0.287123 0.090674 -0.270705 255 0 0
-0.332494 0.347302 -0.295089 153 0 76
0.248333 0.709514 -0.395794 255 0 0
-0.332198 -0.408050 -0.088836 76 0 153
0.308922 -0.624659 -0.150853 153 76 0
-0.296070 -0.781662 0.366893 153 0 76
0.296845 -0.590019 0.355353 76 0 153
-0.348328 -0.832263 0.364856 153 0 76
-0.400898 0.145463 0.289169 76 0 153
-0.204801 0.271511 -0.344134 255 0 0
0.074849 0.009549 0.302182 204 51 127
-0.224539 0.340118 -0.352882 255 0 0
-0.132673 0.012290 -0.059694 204 51 127
-0.273717 -0.051052 -0.291059 204 51 127
0.052040 -0.084209 0.165989 204 51 127
0.066802 -0.084209 -0.100748 204 51 127
0.385361 0.347270 0.059358 76 0 153
0.039013 0.058459 -0.317404 255 0 0
-0.271597 0.654685 -0.395927 255 0 0
0.025103 0.118121 -0.256864 255 0 0
-0.337493 -0.083772 0.205966 204 51 127
-0.002088 0.355193 -0.361704 255 0 0
-0.283078 0.714848 -0.402884 255 0 0
-0.157078 0.013440 0.242441 204 51 127
0.042236 -0.042418 0.479825 204 51 127
0.154377 -0.084209 0.395181 204 51 127
-0.113680 0.481822 -0.307855 255 0 0
0.316628 -0.012846 0.198996 204 51 127
-0.046307 0.566861 -0.319794 255 0 0
0.325640 -0.429145 -0.122394 153 76 0
0.152266 -0.003449 -0.303686 255 0 0
0.007800 0.022530 -0.314280 255 0 0
-0.058416 -0.084209 0.398852 204 51 127
-0.339931 -0.607274 -0.138918 76 0 153
-0.356840 -0.065199 0.278880 76 0 153
0.246941 0.509182 -0.320193 255 0 0
0.273676 -0.005126 -0.303486 255 0 0
-0.091344 0.237962 -0.273694 255 0 0
0.274123 -0.723315 0.357441 76 0 153
-0.156075 -0.084208 -0.218111 204 51 127
0.036980 0.519787 -0.377049 255 0 0
0.325215 -0.033910 -0.198252 204 51 127
-0.359622 0.024207 -0.071903 153 76 0
0.160274 -0.084209 0.345480 204 51 127
-0.324492 -0.610044 0.403629 153 0 76
-0.293704 0.313910 -0.293743 153 0 76
-0.374711 0.347230 -0.176333 153 0 76
0.289858 -0.234546 0.366214 76 0 153
-0.399919 0.057926 -0.048441 153 76 0
0.208241 -0.084209 0.165339 204 51 127
-0.176462 -0.084209 0.215642 204 51 127
0.206837 -0.080951 -0.251618 204 51 127
0.023103 -0.081853 0.459624 204 51 127
0.357463 0.346960 -0.075985 76 0 153
0.193399 0.097154 -0.323924 255 0 0
0.008634 -0.084209 0.220327 204 51 127
0.057830 -0.084209 0.103510 204 51 127
0.060871 -0.084209 0.373156 204 51 127
0.123816 0.199959 -0.268229 255 0 0
-0.133218 -0.002012 0.387524 204 51 127
-0.273185 0.262307 -0.315550 255 0 0
0.377718 0.036975 0.268326 204 51 127
0.158693 0.038769 -0.309310 255 0 0
-0.335332 -0.199957 0.365011 153 0 76
0.373928 0.347328 0.345468 76 0 153
0.257664 0.215500 -0.291176 255 0 0
0.277073 -0.694769 0.363345 76 0 153
0.026186 0.384685 -0.294321 255 0 0
0.084277 -0.062748 -0.282950 204 51 127
0.183566 -0.084209 0.012495 204 51 127
0.160573 -0.002612 -0.166616 204 51 127
-0.363425 0.317614 -0.269816 153 0 76
-0.348529 -0.207856 0.334137 153 0 76
0.005295 0.019770 0.104631 204 51 127
0.234932 0.000609 -0.086706 204 51 127
-0.299358 -0.829027 0.338488 153 0 76
-0.293724 -0.164922 -0.195001 76 0 153
-0.225503 -0.055347 0.479421 204 51 127
0.014882 0.241336 -0.274169 255 0 0
-0.066707 0.017864 0.103702 204 51 127
0.195226 0.356398 -0.359656 255 0 0
-0.198337 0.216263 -0.270520 255 0 0
0.325511 -0.334083 -0.161852 153 76 0
-0.060654 -0.084209 0.322856 204 51 127
-0.326877 -0.086474 0.427686 204 51 127
-0.338046 -0.001568 -0.043766 204 51 127
-0.154877 0.619082 -0.327168 255 0 0
-0.051571 0.219661 -0.271025 255 0 0
-0.323228 -0.344446 0.355838 153 0 76
-0.326170 -0.258763 0.371560 153 0 76
-0.341819 -0.496605 0.461509 153 0 76
0.139065 0.004719 -0.115205 204 51 127
-0.428378 0.342077 0.256386 153 0 76
-0.315483 -0.339389 0.416084 153 0 76
0.325688 -0.147544 0.339275 76 0 153
-0.386410 0.347325 0.429807 153 0 76
-0.077389 0.296298 -0.281769 255 0 0
-0.072636 0.189901 -0.266816 255 0 0
0.243107 0.448752 -0.319395 255 0 0
-0.213901 0.573931 -0.385765 255 0 0
-0.081542 -0.036111 0.478159 204 51 127
-0.310621 -0.367133 -0.107830 76 0 153
0.343592 -0.033838 -0.045921 153 0 76
0.171202 0.009656 0.119479 204 51 127
-0.410372 0.347341 0.225895 153 0 76
0.395810 0.344564 0.268376 76 0 153
-0.393832 0.058618 0.260301 76 0 153
-0.337343 -0.007766 -0.086089 204 51 127
-0.087345 0.425239 -0.299890 255 0 0
0.259639 -0.004822 0.402982 204 51 127
-0.346406 -0.579838 0.419757 153 0 76
0.138518 0.456764 -0.372508 255 0 0
0.014289 0.148935 -0.261059 255 0 0
0.325253 -0.762214 0.350573 76 0 153
-0.388435 0.127185 -0.075133 153 76 0
0.252573 0.323233 -0.348819 76 0 153
0.088748 -0.010814 0.450004 204 51 127
0.111381 -0.014147 0.462926 204 51 127
-0.249385 0.565585 -0.387772 255 0 0
-0.348488 -0.502525 -0.103016 76 0 153
0.238012 0.139650 -0.259798 255 0 0
-0.322870 -0.282367 -0.228039 76 0 153
0.394919 0.317654 0.158333 76 0 153
0.188558 0.193833 -0.267368 255 0 0
0.207454 0.023322 -0.243477 255 0 0
0.323821 -0.507376 -0.090071 153 76 0
0.238634 -0.000175 0.270049 204 51 127
-0.002589 0.432350 -0.366249 255 0 0
0.325489 -0.227566 0.319053 76 0 153
0.293346 -0.280680 -0.165277 153 76 0
0.265546 0.173395 -0.290891 255 0 0
0.413113 0.321081 -0.055247 76 0 153
-0.222768 0.005929 -0.309699 255 0 0
0.206203 0.101011 -0.254450 255 0 0
-0.348197 -0.284541 0.363570 153 0 76
0.385981 0.347047 -0.161699 76 0 153
-0.252884 0.442043 -0.303894 255 0 0
0.323303 -0.813025 -0.216458 153 76 0
-0.377653 0.347337 -0.251910 153 0 76
-0.270488 0.516643 -0.372660 255 0 0
0.105968 0.125445 -0.257894 255 0 0
0.349076 0.213593 -0.058385 153 0 76
0.271350 -0.660540 -0.182258 153 76 0
-0.308124 -0.732889 0.302383 153 0 76
-0.056283 0.593373 -0.323547 255 0 0
0.288708 -0.397874 -0.155943 153 76 0
-0.337243 0.798128 -0.390188 255 0 0
0.016197 0.018980 0.141368 204 51 127
0.030740 0.549261 -0.317320 255 0 0
0.242711 0.367042 -0.342437 255 0 0
0.058351 0.008402 -0.237322 255 0 0
-0.382419 0.303502 -0.037449 153 76 0
-0.011743 0.034942 -0.245208 255 0 0
-0.093473 -0.084209 -0.138742 204 51 127
0.030704 0.405335 -0.297094 255 0 0
0.372339 0.310882 -0.087102 76 0 153
0.125601 0.241869 -0.337963 255 0 0
-0.346863 -0.552501 0.389852 153 0 76
0.372216 0.149101 0.259529 204 51 127
0.237164 0.383735 -0.301344 255 0 0
0.140063 0.012800 0.127883 204 51 127
-0.255285 0.000988 0.213844 204 51 127
0.275335 -0.006160 -0.031356 204 51 127
-0.246938 -0.063501 0.477501 204 51 127
0.364884 0.345112 -0.298496 76 0 153
0.004205 0.017204 0.181538 204 51 127
-0.135326 -0.084209 0.069973 204 51 127
-0.385743 0.346994 -0.020892 153 0 76
0.083782 0.088187 -0.321090 255 0 0
-0.135282 -0.007298 -0.206985 204 51 127
-0.327666 0.753748 -0.393686 255 0 0
-0.348550 -0.045564 0.176130 204 51 127
-0.420127 0.119683 -0.061287 153 76 0
-0.207695 -0.084209 0.280466 204 51 127
-0.235265 0.004080 0.088282 204 51 127
0.216039 0.170407 -0.329193 255 0 0
0.304758 -0.051941 0.479752 204 51 127
0.315562 0.790956 -0.410802 255 0 0
0.325656 -0.824249 -0.182810 153 76 0
-0.081315 0.012475 -0.049212 204 51 127
0.345704 0.127789 -0.064549 153 0 76
-0.311086 0.086446 -0.273954 255 0 0
0.225258 0.001781 0.330314 204 51 127
-0.390646 0.321980 -0.300115 153 0 76
-0.335461 -0.434085 -0.145445 76 0 153
0.122606 -0.084209 0.264075 204 51 127
0.156137 -0.084209 -0.149762 204 51 127
-0.099951 0.178167 -0.265167 255 0 0
-0.002678 0.572411 -0.320574 255 0 0
0.325517 -0.376538 0.407325 76 0 153
0.270862 -0.141164 0.346499 76 0 153
-0.379775 0.082607 0.289101 76 0 153
0.186449 0.633762 -0.393067 255 0 0
0.195772 0.398199 -0.366645 255 0 0
-0.235902 0.003344 0.003408 204 51 127
-0.309956 -0.629119 -0.153482 76 0 153
-0.323141 -0.009214 0.044768 204 51 127
-0.426880 0.339426 -0.092791 153 0 76
0.164959 0.010629 -0.045478 204 51 127
0.015178 -0.010300 0.446524 204 51 127
-0.352859 -0.059039 -0.032461 204 51 127
0.297991 -0.297462 -0.221214 153 76 0
0.311393 -0.084119 0.255157 204 51 127
0.077093 0.014281 0.250116 204 51 127
0.160834 0.417090 -0.298745 255 0 0
0.150814 0.002460 -0.132108 204 51 127
0.325535 -0.330965 0.385671 76 0 153
-0.114289 0.006515 -0.236632 255 0 0
0.276511 0.125287 -0.297352 255 0 0
-0.286514 -0.099649 -0.188939 76 0 153
0.029023 0.015154 0.005818 204 51 127
-0.121531 0.014498 0.140005 204 51 127
-0.125641 -0.084209 -0.130431 204 51 127
0.188331 -0.000141 0.371665 204 51 127
0.325690 -0.595493 0.392434 76 0 153
-0.327543 0.347324 -0.312397 153 0 76
-0.054888 0.500612 -0.379665 255 0 0
-0.246586 -0.002095 -0.163545 204 51 127
-0.027757 0.010175 -0.078883 204 51 127
-0.145841 -0.084209 0.324279 204 51 127
-0.230113 0.182013 -0.329399 255 0 0
0.320276 -0.718277 0.304361 76 0 153
0.101630 0.029160 -0.244261 255 0 0
-0.166444 0.006616 -0.106117 204 51 127
0.325568 -0.533367 0.432588 76 0 153
0.320492 -0.575847 -0.176418 153 76 0
0.255185 0.351041 -0.301481 76 0 153
-0.170886 -0.011176 0.451591 204 51 127
0.003792 -0.007011 -0.203392 204 51 127
-0.016594 0.028982 -0.314092 255 0 0
0.270917 -0.246760 0.336621 76 0 153
-0.348548 -0.620372 -0.182056 76 0 153
0.300867 -0.091320 -0.226316 204 51 127
-0.301972 -0.351556 0.424585 153 0 76
-0.029813 0.230457 -0.336381 255 0 0
0.010672 0.212587 -0.270004 255 0 0
-0.369796 0.129607 -0.051309 153 76 0
0.358941 0.317640 -0.284470 76 0 153
0.046552 0.009162 -0.087485 204 51 127
-0.375191 0.206873 0.284560 76 0 153
0.101597 0.389726 -0.358766 255 0 0
0.319588 -0.609163 -0.141162 153 76 0
-0.323883 -0.009698 0.010263 204 51 127
0.349811 0.270619 -0.063741 153 0 76
-0.348547 -0.701145 -0.212740 76 0 153
-0.033688 -0.081955 -0.245697 204 51 127
-0.331782 -0.734227 -0.178510 76 0 153
0.345641 0.013478 0.258107 204 51 127
-0.057349 -0.067072 0.476174 204 51 127
0.292488 -0.348760 0.359270 76 0 153
0.266341 0.623282 -0.358907 255 0 0
0.327290 -0.029907 0.227765 204 51 127
-0.323694 0.044510 -0.290348 255 0 0
0.308489 -0.264737 -0.233827 153 76 0
0.231479 -0.084209 -0.001490 204 51 127
-0.205567 -0.084209 0.092824 204 51 127
-0.265657 -0.006790 -0.197435 204 51 127
0.324675 -0.522673 -0.141710 153 76 0
-0.173483 -0.084209 -0.129646 204 51 127
-0.154465 0.544207 -0.316611 255 0 0
-0.296733 -0.328074 0.398795 153 0 76
-0.393268 0.292666 0.289552 76 0 153
-0.293788 -0.388602 0.425918 153 0 76
0.040414 -0.084209 0.011547 204 51 127
-0.270683 -0.084209 0.108009 204 51 127
-0.348540 -0.630147 0.360584 153 0 76
-0.348372 -0.066057 -0.213172 204 51 127
-0.161977 0.013031 -0.033535 204 51 127
0.370665 0.214749 0.259566 204 51 127
0.399315 0.134132 0.282002 204 51 127
0.400934 0.323164 -0.146266 76 0 153
-0.380441 0.317798 -0.132959 153 0 76
-0.044159 -0.011835 -0.305842 255 0 0
-0.272107 0.264404 -0.286282 255 0 0
0.155361 0.393110 -0.359914 255 0 0
0.292188 -0.561750 0.375662 76 0 153
0.317306 -0.787875 -0.168121 153 76 0
0.116463 -0.084209 -0.157197 204 51 127
-0.310568 -0.672759 0.308798 153 0 76
0.266338 0.118608 -0.323307 255 0 0
-0.218726 0.321231 -0.285273 255 0 0
0.271396 -0.243297 -0.220914 153 76 0
-0.302566 -0.200350 0.303705 153 0 76
-0.421866 0.347109 0.187085 153 0 76
-0.328781 0.763688 -0.362673 255 0 0
0.282316 -0.853093 -0.154276 153 76 0
-0.118888 -0.084209 0.109240 204 51 127
0.270879 -0.180013 0.347199 76 0 153
-0.274648 -0.076792 -0.263000 204 51 127
0.022486 -0.084208 0.437994 204 51 127
-0.293743 -0.562719 0.413349 153 0 76
0.035321 -0.084209 0.188592 204 51 127
-0.330883 -0.180981 -0.239922 76 0 153
0.270942 -0.706586 0.324405 76 0 153
0.188751 0.329393 -0.286420 255 0 0
-0.348322 -0.472848 -0.095402 76 0 153
-0.145348 0.544400 -0.388483 255 0 0
0.195979 0.546621 -0.316949 255 0 0
-0.425351 0.317717 0.113848 153 0 76
-0.319878 0.057820 -0.277941 255 0 0
-0.123665 0.014909 0.218914 204 51 127
-0.062349 -0.020918 -0.302719 255 0 0
-0.233486 -0.084209 0.238336 204 51 127
-0.142414 0.415138 -0.364270 255 0 0
0.196489 0.478372 -0.307365 255 0 0
-0.102955 -0.010851 0.450259 204 51 127
-0.286842 -0.003791 0.061056 204 51 127
-0.236797 0.003239 -0.070284 204 51 127
-0.337817 -0.012115 0.103675 204 51 127
0.145172 -0.084209 0.018531 204 51 127
-0.156297 0.013653 0.081951 204 51 127
0.324679 -0.653620 -0.175035 153 76 0
0.240180 0.642419 -0.394283 255 0 0
-0.375063 0.066751 0.261281 76 0 153
0.192495 -0.026960 0.474580 204 51 127
-0.024415 -0.002300 0.388583 204 51 127
0.146423 0.012248 0.043360 204 51 127
-0.196896 0.660070 -0.374941 255 0 0
-0.264863 0.412498 -0.319441 255 0 0
-0.043551 0.497781 -0.310115 255 0 0
-0.391067 0.347189 -0.217839 153 0 76
-0.297373 -0.005962 -0.213077 204 51 127
0.359645 0.319464 -0.303694 76 0 153
0.283434 -0.006196 0.264943 204 51 127
-0.348442 -0.027746 0.074935 204 51 127
0.211014 -0.078510 0.467450 204 51 127
0.022107 -0.084209 0.347504 204 51 127
-0.423278 0.317822 0.024941 153 0 76
0.302039 0.043519 -0.273076 255 0 0
0.013220 0.002395 0.350587 204 51 127
-0.348500 -0.572716 0.390100 153 0 76
-0.091786 0.296264 -0.346574 255 0 0
-0.347273 -0.082452 0.330559 204 51 127
0.350456 0.307675 0.264384 204 51 127
-0.232432 0.390486 -0.362534 255 0 0
-0.344800 -0.694271 -0.178389 76 0 153
-0.343342 0.320409 -0.326584 153 0 76
0.069010 0.612178 -0.326248 255 0 0
0.348752 0.061530 0.261454 204 51 127
0.338891 0.346933 0.463804 76 0 153
0.220238 0.574077 -0.320808 255 0 0
-0.298367 -0.393084 -0.098186 76 0 153
0.014850 0.014871 0.237719 204 51 127
0.019707 0.017255 0.041754 204 51 127
-0.083365 -0.084209 -0.078508 204 51 127
-0.326200 -0.599388 -0.196465 76 0 153
0.253719 -0.084209 -0.092733 204 51 127
0.186586 -0.084209 -0.131510 204 51 127
0.036360 -0.015349 -0.306472 255 0 0
-0.050291 -0.084209 0.040940 204 51 127
-0.115610 0.347557 -0.288998 255 0 0
-0.260971 0.394007 -0.355124 255 0 0
-0.301625 -0.437201 -0.141591 76 0 153
0.141814 0.012514 0.002553 204 51 127
-0.214787 0.006831 -0.053678 204 51 127
-0.089399 0.331182 -0.286671 255 0 0
0.288388 0.347353 -0.305102 76 0 153
-0.373487 0.185959 0.278387 76 0 153
0.271156 -0.440108 -0.098128 153 76 0
-0.207271 0.189054 -0.330443 255 0 0
-0.207681 -0.083669 0.450267 204 51 127
0.351260 0.210583 0.278053 204 51 127
0.325733 -0.044578 0.410655 204 51 127
-0.259588 0.000079 0.032655 204 51 127
0.259675 -0.007007 -0.208672 204 51 127
-0.057216 0.016631 0.035931 204 51 127
0.188293 -0.084209 -0.097639 204 51 127
0.364404 0.290745 0.259851 204 51 127
-0.086291 0.013873 -0.022943 204 51 127
-0.284863 0.098366 -0.317785 255 0 0
-0.348414 -0.761849 0.327221 153 0 76
0.005013 -0.084209 0.066661 204 51 127
0.130420 0.013060 0.166728 204 51 127
-0.290337 0.160217 -0.311830 255 0 0
0.101765 -0.084209 -0.179763 204 51 127
-0.268123 0.564213 -0.388735 255 0 0
0.296342 -0.818351 -0.153236 153 76 0
-0.013945 0.517318 -0.379538 255 0 0
-0.045520 0.600408 -0.394536 255 0 0
-0.003340 0.362814 -0.291253 255 0 0
0.046110 0.619490 -0.344633 255 0 0
0.354114 0.259932 0.285674 204 51 127
0.268263 0.041697 -0.246065 255 0 0
-0.301800 -0.084209 0.155431 204 51 127
-0.074805 -0.084209 -0.115067 204 51 127
0.175219 -0.084209 -0.060421 204 51 127
-0.413463 0.316236 -0.020921 153 0 76
-0.310268 0.715620 -0.346465 255 0 0
-0.380763 0.346788 0.272936 153 0 76
-0.083522 -0.083077 0.455365 204 51 127
-0.348366 -0.677109 0.317936 153 0 76
0.051716 0.076420 -0.320201 255 0 0
0.325176 -0.061046 0.342866 204 51 127
0.281099 0.325625 -0.342954 76 0 153
-0.363645 0.339324 -0.143168 153 0 76
0.041314 0.015471 0.225130 204 51 127
-0.316064 -0.472325 0.401434 153 0 76
-0.109715 0.383613 -0.294177 255 0 0
-0.035975 -0.084209 -0.119475 204 51 127
0.280866 -0.522927 0.393932 76 0 153
-0.078633 -0.084209 0.395956 204 51 127
0.271349 -0.431627 0.450238 76 0 153
-0.348488 -0.057942 -0.242067 204 51 127
0.300291 -0.429098 0.460978 76 0 153
0.084719 0.013977 -0.018239 204 51 127
0.012089 0.393888 -0.363020 255 0 0
0.023963 0.016303 -0.242076 255 0 0
0.256517 0.003265 -0.234576 255 0 0
-0.323625 -0.381150 0.444224 153 0 76
0.306516 -0.007919 0.234461 204 51 127
0.325726 -0.139556 -0.186060 153 76 0
0.274274 -0.226484 0.358268 76 0 153
-0.161665 0.193875 -0.267374 255 0 0
-0.113015 0.570672 -0.390477 255 0 0
-0.338511 -0.356900 0.428762 153 0 76
0.314396 -0.030307 -0.298433 204 51 127
-0.115462 0.283449 -0.279963 255 0 0
-0.153144 0.582500 -0.321992 255 0 0
0.375537 0.347293 -0.196014 76 0 153
0.175922 0.293102 -0.350049 255 0 0
0.271028 -0.748443 -0.223270 153 76 0
0.361054 0.087430 0.289152 204 51 127
-0.293933 -0.768824 0.352109 153 0 76
-0.327804 -0.075874 0.470597 204 51 127
-0.273113 -0.002669 0.372201 204 51 127
-0.022845 0.320962 -0.353385 255 0 0
0.285936 -0.149637 0.311800 76 0 153
0.270409 0.082866 -0.320128 255 0 0
-0.347074 -0.014556 0.320556 204 51 127
0.256162 -0.089703 0.401863 204 51 127
-0.170609 -0.084209 0.353144 204 51 127
-0.323322 -0.628123 -0.216697 76 0 153
-0.295848 -0.588012 -0.175697 76 0 153
-0.323718 -0.084196 0.273853 204 51 127
-0.141257 0.013992 0.113676 204 51 127
-0.382237 0.344946 0.021073 153 0 76
0.095967 0.250675 -0.339950 255 0 0
-0.434983 0.258859 0.267119 76 0 153
0.265635 0.627694 -0.389263 255 0 0
-0.356772 0.336859 -0.170961 153 0 76
0.084777 0.010057 -0.306568 255 0 0
0.325673 -0.716858 0.342859 76 0 153
0.033981 -0.084209 0.287428 204 51 127
-0.311039 -0.349324 -0.183827 76 0 153
0.087349 0.015756 0.051734 204 51 127
-0.180516 -0.084209 0.099267 204 51 127
-0.172495 -0.084209 -0.203997 204 51 127
-0.434747 0.323599 -0.068525 153 0 76
0.184521 0.007982 0.050721 204 51 127
0.175689 0.153767 -0.261737 255 0 0
0.217414 -0.084209 0.035286 204 51 127
-0.058524 -0.037419 0.478583 204 51 127
0.295554 -0.745496 -0.241164 153 76 0
-0.384483 0.344402 -0.295194 153 0 76
0.028412 -0.084209 0.411330 204 51 127
-0.221728 -0.084121 -0.221897 204 51 127
0.274493 -0.319709 0.391842 76 0 153
0.271195 -0.747407 0.347180 76 0 153
0.264455 -0.084209 0.271899 204 51 127
0.067852 0.467724 -0.369631 255 0 0
-0.156727 0.399574 -0.365849 255 0 0
0.288547 -0.594755 -0.192494 153 76 0
-0.083974 0.612763 -0.388098 255 0 0
0.305849 -0.464918 0.401548 76 0 153
-0.170189 0.638933 -0.330069 255 0 0
-0.013715 0.105293 -0.255061 255 0 0
0.347421 0.340958 0.318790 76 0 153
-0.293884 -0.127937 -0.213285 76 0 153
0.307506 -0.007011 -0.299868 255 0 0
0.271216 -0.291156 -0.207918 153 76 0
-0.325127 -0.324641 0.339894 153 0 76
-0.228167 -0.084209 -0.181124 204 51 127
0.273231 -0.763141 0.362930 76 0 153
0.281990 -0.007213 0.188735 204 51 127
0.225168 -0.084205 0.332390 204 51 127
-0.239972 0.519355 -0.313184 255 0 0
0.192827 -0.084209 0.380758 204 51 127
-0.347961 -0.840065 -0.162789 76 0 153
0.001565 -0.055489 0.479365 204 51 127
-0.313206 -0.838658 -0.203662 76 0 153
0.325616 -0.709902 0.322182 76 0 153
0.301024 -0.546947 0.383529 76 0 153
0.079805 0.012145 0.279299 204 51 127
0.214932 0.460183 -0.304830 255 0 0
-0.365911 -0.029762 -0.072280 153 76 0
-0.263573 0.197905 -0.338074 255 0 0
-0.351801 0.340475 0.440301 153 0 76
0.209996 0.503402 -0.374745 255 0 0
-0.325376 -0.012805 0.457056 204 51 127
-0.298476 -0.005598 0.377619 204 51 127
0.060416 -0.084209 0.268648 204 51 127
0.349247 0.317707 -0.188317 76 0 153
0.045814 0.238250 -0.342760 255 0 0
-0.277327 0.232276 -0.314133 255 0 0
0.218526 -0.084209 0.308896 204 51 127
-0.238728 0.651927 -0.331780 255 0 0
-0.015816 0.200149 -0.332059 255 0 0
0.092824 0.009675 0.302580 204 51 127
-0.278554 -0.002556 0.266773 204 51 127
0.344746 -0.042715 0.265820 204 51 127
0.156809 0.217785 -0.334799 255 0 0
0.125143 -0.006084 -0.218328 204 51 127
-0.161468 -0.084209 0.247287 204 51 127
0.044643 0.436636 -0.301491 255 0 0
0.350859 0.332992 0.237204 76 0 153
0.142138 -0.084209 0.296141 204 51 127
-0.035831 0.018202 0.060550 204 51 127
-0.283204 0.731157 -0.352010 255 0 0
-0.004762 -0.084209 -0.137943 204 51 127
0.259087 0.204865 -0.310171 255 0 0
-0.346483 -0.483908 0.405435 153 0 76
-0.436647 0.323726 -0.040646 153 0 76
0.333086 0.042874 -0.064205 153 0 76
0.274573 -0.806027 0.376061 76 0 153
-0.177496 0.550814 -0.317538 255 0 0
-0.293844 -0.285248 -0.207272 76 0 153
0.342497 -0.020390 -0.077657 153 0 76
0.295037 0.056291 -0.307357 255 0 0
-0.316925 -0.741121 0.365796 153 0 76
-0.386871 0.347130 0.311763 153 0 76
-0.265537 0.435283 -0.324117 255 0 0
0.075218 0.280390 -0.343715 255 0 0
-0.265098 0.009478 -0.238351 255 0 0
0.228774 -0.026152 0.474029 204 51 127
0.157902 -0.084209 -0.203778 204 51 127
-0.384591 0.052399 -0.075020 153 76 0
0.325575 -0.102733 -0.200822 153 76 0
-0.323614 0.022064 -0.305913 255 0 0
-0.111896 0.202312 -0.268560 255 0 0
0.194859 0.006722 0.248151 204 51 127
0.125391 -0.084209 0.351667 204 51 127
-0.348552 -0.047576 -0.151487 204 51 127
0.001963 0.211091 -0.334066 255 0 0
-0.358908 0.319772 0.410152 153 0 76
-0.033438 0.429626 -0.372012 255 0 0
-0.305505 -0.734075 -0.241439 76 0 153
0.246982 0.664132 -0.397322 255 0 0
-0.294787 -0.482303 -0.091850 76 0 153
-0.276755 -0.084209 0.264111 204 51 127
0.144429 0.558400 -0.318605 255 0 0
0.322194 -0.080792 -0.041238 204 51 127
0.325423 -0.713091 -0.231826 153 76 0
-0.080422 0.459911 -0.304762 255 0 0
0.168841 -0.006271 -0.215861 204 51 127
-0.194709 -0.084209 0.153508 204 51 127
0.273454 -0.005423 0.125319 204 51 127
-0.372343 0.090226 0.263154 76 0 153
0.187065 0.007075 0.173891 204 51 127
-0.331887 0.791690 -0.370542 255 0 0
-0.197768 -0.084209 0.392056 204 51 127
-0.300459 -0.448694 0.405386 153 0 76
-0.138463 -0.002629 -0.165165 204 51 127
0.284120 -0.007551 0.042983 204 51 127
0.066790 0.221718 -0.271333 255 0 0
-0.014967 0.265777 -0.277532 255 0 0
0.040264 0.017854 0.069825 204 51 127
-0.191932 0.248223 -0.346354 255 0 0
0.150387 0.012021 0.238406 204 51 127
0.325673 -0.505171 0.414929 76 0 153
0.226950 -0.084209 -0.095598 204 51 127
0.382639 0.347190 0.288037 76 0 153
0.177042 -0.052465 -0.290457 204 51 127
0.369665 0.097013 -0.075207 153 0 76
-0.282200 0.084932 -0.252064 255 0 0
0.181371 0.050793 -0.247266 255 0 0
0.171085 0.354725 -0.290080 255 0 0
0.362868 0.347253 -0.261663 76 0 153
0.362141 0.176956 0.259703 204 51 127
0.360479 0.005578 0.286035 204 51 127
0.270866 -0.672986 0.330084 76 0 153
0.324706 -0.025403 -0.250905 204 51 127
-0.352053 -0.010011 0.243592 76 0 153
-0.433349 0.311968 0.266838 153 0 76
0.377272 0.079485 -0.046936 153 0 76
-0.128100 0.045863 -0.246704 255 0 0
-0.100834 0.626522 -0.334131 255 0 0
-0.302612 -0.084209 -0.074962 204 51 127
0.279497 -0.321826 0.339773 76 0 153
0.270938 -0.395950 -0.129212 153 76 0
-0.354308 -0.029602 -0.026294 204 51 127
-0.045404 -0.084209 -0.022973 204 51 127
0.081369 -0.084209 0.153961 204 51 127
0.200431 -0.007068 -0.209448 204 51 127
-0.140484 0.169168 -0.330597 255 0 0
-0.389623 0.347215 0.344559 153 0 76
-0.159060 0.012502 0.164305 204 51 127
0.376979 0.317684 0.176452 76 0 153
0.158179 -0.007457 0.425297 204 51 127
0.225012 -0.084205 -0.156846 204 51 127
-0.037223 -0.005075 -0.183847 204 51 127
0.335511 0.347336 -0.309593 76 0 153
-0.293835 -0.523800 0.407988 153 0 76
-0.204728 0.491058 -0.309166 255 0 0
0.005752 -0.084209 0.238767 204 51 127
0.274343 -0.308163 -0.158437 153 76 0
0.243168 -0.000887 0.216163 204 51 127
-0.169915 0.570813 -0.386461 255 0 0
-0.191359 0.341753 -0.288157 255 0 0
-0.298062 0.743539 -0.382719 255 0 0
0.406656 0.181939 0.269081 204 51 127
0.134064 0.635408 -0.390748 255 0 0
0.384502 0.298559 0.256482 204 51 127
-0.293701 -0.587164 0.388323 153 0 76
-0.342003 -0.418600 0.396479 153 0 76
0.151520 0.423238 -0.366102 255 0 0
-0.396742 0.086029 -0.073681 153 76 0
0.267503 -0.084209 0.148845 204 51 127
-0.146143 0.120408 -0.323583 255 0 0
0.320754 -0.151272 0.314315 76 0 153
0.370882 0.022164 -0.055968 153 0 76
0.181930 0.664556 -0.376661 255 0 0
-0.281286 0.186634 -0.269984 255 0 0
0.096109 0.270474 -0.278159 255 0 0
0.134901 0.265751 -0.342048 255 0 0
0.280378 -0.835365 0.401217 76 0 153
0.270969 -0.332508 0.369686 76 0 153
-0.260455 -0.084209 0.298093 204 51 127
-0.172431 -0.081742 -0.246951 204 51 127
-0.293816 -0.159856 0.357881 153 0 76
-0.077273 0.548168 -0.382133 255 0 0
0.266277 -0.104252 -0.196439 153 76 0
-0.282967 0.109614 -0.255752 255 0 0
-0.285167 0.051610 -0.311114 255 0 0
0.146483 0.196894 -0.267798 255 0 0
-0.435567 0.290020 -0.048003 153 76 0
0.271871 -0.474460 -0.091972 153 76 0
0.316637 0.001168 0.264857 204 51 127
-0.297970 0.132545 -0.280753 255 0 0
-0.074961 -0.084209 -0.210706 204 51 127
0.320742 0.317570 -0.290288 76 0 153
0.261476 -0.089091 0.323109 204 51 127
0.057460 -0.080062 -0.254467 204 51 127
0.387304 0.341634 0.414621 76 0 153
-0.083765 0.337468 -0.355174 255 0 0
-0.298087 -0.319031 -0.149281 76 0 153
0.037441 -0.062452 0.477838 204 51 127
-0.247023 0.194445 -0.335583 255 0 0
-0.071165 0.248256 -0.275141 255 0 0
-0.419549 0.177519 0.286145 76 0 153
-0.045657 -0.084209 0.211506 204 51 127
-0.273552 0.142099 -0.260182 255 0 0
-0.348547 -0.038128 -0.191361 204 51 127
0.264160 0.729044 -0.393198 255 0 0
-0.346445 -0.268013 0.367654 153 0 76
-0.212672 -0.084209 -0.072813 204 51 127
0.059847 -0.084209 -0.204713 204 51 127
0.414718 0.331800 0.188368 76 0 153
0.401047 0.192409 -0.070609 153 0 76
0.279632 -0.665226 -0.230802 153 76 0
0.325685 -0.559790 -0.128514 153 76 0
0.325508 -0.042050 0.005590 204 51 127
0.183055 0.602132 -0.388584 255 0 0
-0.135047 0.148986 -0.328286 255 0 0
-0.167914 0.012527 0.258082 204 51 127
-0.277571 -0.002506 0.163147 204 51 127
-0.346839 -0.840394 -0.188790 76 0 153
0.128758 -0.084209 -0.000174 204 51 127
-0.395902 0.346062 -0.261627 153 0 76
-0.298171 -0.197042 0.360614 153 0 76
-0.145280 0.013993 0.042917 204 51 127
0.325654 -0.739576 -0.197451 153 76 0
0.029298 0.002466 -0.233682 204 51 127
0.108715 0.014335 0.121595 204 51 127
0.325556 -0.310997 -0.169501 153 76 0
0.125418 -0.083847 -0.227743 204 51 127
-0.039226 0.086639 -0.318769 255 0 0
-0.107942 -0.084209 0.137600 204 51 127
-0.281718 0.132129 -0.322315 255 0 0
-0.219991 0.005591 0.142580 204 51 127
0.052579 0.017119 0.047746 204 51 127
-0.422148 0.138172 -0.064787 153 76 0
-0.272081 0.523558 -0.330728 255 0 0
-0.424258 0.221112 0.259945 76 0 153
-0.400286 0.317629 -0.175727 153 0 76
0.270931 -0.140603 0.363508 76 0 153
-0.356448 -0.046916 0.247112 76 0 153
-0.394597 0.279066 -0.075262 153 76 0
-0.334813 -0.854092 0.386533 153 0 76
-0.081030 -0.084209 -0.150584 204 51 127
0.065731 -0.084209 0.305611 204 51 127
0.325615 -0.078178 0.358939 204 51 127
0.413516 0.282652 -0.056141 153 0 76
0.300913 -0.009865 -0.142940 204 51 127
-0.254093 -0.035632 0.478004 204 51 127
-0.293822 -0.740891 -0.224335 76 0 153
-0.347889 -0.077851 0.245126 204 51 127
0.325492 -0.018282 -0.013944 204 51 127
-0.309574 -0.439776 -0.081834 76 0 153
-0.414981 0.346515 -0.082950 153 0 76
-0.415068 0.201080 0.259681 76 0 153
0.310057 -0.757993 0.367955 76 0 153
-0.280654 0.638557 -0.330524 255 0 0
0.305839 -0.741466 0.303031 76 0 153
0.324321 -0.442746 -0.132465 153 76 0
0.230204 0.358523 -0.359585 255 0 0
0.270975 -0.449794 -0.117977 153 76 0
-0.031322 -0.075422 0.471039 204 51 127
0.306441 -0.852342 -0.184757 153 76 0
0.147337 0.140078 -0.259853 255 0 0
0.385087 0.316172 0.231759 76 0 153
-0.168425 0.416577 -0.369185 255 0 0
0.137200 0.108698 -0.323229 255 0 0
0.157138 0.001504 0.358420 204 51 127
0.275796 -0.582953 0.420316 76 0 153
-0.180972 -0.005638 -0.187135 204 51 127
-0.006254 0.012396 0.276392 204 51 127
0.084313 0.344641 -0.357863 255 0 0
-0.035958 0.248378 -0.275159 255 0 0
-0.032690 0.151466 -0.325254 255 0 0
-0.293911 -0.375512 0.403273 153 0 76
0.152302 0.011306 -0.058473 204 51 127
0.115635 0.104126 -0.254897 255 0 0
-0.294939 -0.431470 0.416644 153 0 76
0.313615 -0.372033 0.375705 76 0 153
0.335265 0.347360 -0.282843 76 0 153
0.318642 -0.081487 0.457960 204 51 127
-0.361168 0.044427 0.263606 76 0 153
-0.216908 -0.058021 -0.286572 204 51 127
-0.029233 0.541955 -0.316296 255 0 0
-0.416801 0.317614 0.184617 153 0 76
-0.385038 0.321346 0.481164 153 0 76
-0.381541 0.214794 -0.046151 153 76 0
-0.293845 -0.660633 -0.212630 76 0 153
-0.108254 -0.084209 0.310006 204 51 127
0.190113 0.002300 -0.135161 204 51 127
0.377433 0.317576 0.011967 76 0 153
0.349493 0.287713 -0.063389 153 0 76
-0.322341 0.773790 -0.393952 255 0 0
0.128224 0.045107 -0.310201 255 0 0
-0.159596 -0.084209 0.037804 204 51 127
0.271928 -0.363411 0.382932 76 0 153
-0.012304 -0.082067 -0.245038 204 51 127
0.144316 -0.079999 -0.254631 204 51 127
0.228959 -0.001749 0.386682 204 51 127
0.149726 0.287020 -0.280465 255 0 0
-0.007224 0.239153 -0.338256 255 0 0
-0.375736 0.319409 0.239158 153 0 76
0.275233 -0.395325 0.391981 76 0 153
0.269716 0.313780 -0.307118 76 0 153
-0.347409 -0.367877 -0.117423 76 0 153
-0.305387 -0.006667 -0.049580 204 51 127
-0.218546 0.005774 0.041795 204 51 127
-0.041960 -0.084208 -0.216883 204 51 127
0.307824 -0.354002 -0.116623 153 76 0
0.000472 0.414845 -0.298430 255 0 0
-0.141003 0.471121 -0.306338 255 0 0
-0.422572 0.331672 -0.182671 153 0 76
0.295857 0.061739 -0.277366 255 0 0
0.309361 -0.084098 0.225364 204 51 127
-0.099651 -0.083656 0.450544 204 51 127
-0.068781 -0.084209 0.135520 204 51 127
-0.046431 0.223252 -0.335361 255 0 0
0.208358 -0.084209 0.066409 204 51 127
-0.336521 -0.084034 0.227025 204 51 127
-0.086920 0.017122 0.072227 204 51 127
-0.242253 -0.000009 0.369316 204 51 127
-0.430959 0.264625 -0.047186 153 76 0
0.321973 -0.230321 0.360882 76 0 153
0.244288 -0.044182 -0.294630 204 51 127
0.189673 -0.084209 0.220093 204 51 127
0.346979 0.068283 -0.072846 153 0 76
0.321577 -0.513459 0.456159 76 0 153
-0.022449 -0.039088 -0.298991 204 51 127
-0.239561 0.001752 0.346074 204 51 127
0.228918 0.335073 -0.355188 255 0 0
0.239228 0.443485 -0.356105 255 0 0
-0.348464 -0.059612 0.140113 204 51 127
0.314278 -0.372527 -0.104886 153 76 0
0.274352 -0.847509 -0.179800 153 76 0
-0.105544 0.062060 -0.314245 255 0 0
0.070343 0.247419 -0.275024 255 0 0
-0.386456 0.347341 0.401338 153 0 76
0.051708 0.383327 -0.294137 255 0 0
-0.313366 -0.336240 -0.194963 76 0 153
0.317433 -0.493566 -0.082967 153 76 0
0.088498 -0.084209 0.052310 204 51 127
0.016564 0.008242 -0.313298 255 0 0
0.372920 0.101257 -0.045566 153 0 76
0.395250 0.345661 -0.075739 76 0 153
-0.294580 -0.006196 -0.191682 204 51 127
-0.348547 -0.574576 -0.148041 76 0 153
-0.304884 -0.853476 0.390996 153 0 76
0.069811 0.114100 -0.256299 255 0 0
-0.215539 -0.084209 -0.192486 204 51 127
-0.135292 -0.058871 -0.285925 204 51 127
0.143503 0.149561 -0.330518 255 0 0
0.283251 -0.083158 0.455089 204 51 127
-0.260820 0.304334 -0.282837 255 0 0
-0.169548 0.180200 -0.329183 255 0 0
-0.346466 -0.533490 -0.097658 76 0 153
0.325273 -0.296002 0.346538 76 0 153
0.385564 0.317617 0.191202 76 0 153
0.373918 0.285799 -0.075223 153 0 76
-0.293709 -0.632002 -0.196565 76 0 153
0.201832 0.005674 -0.038265 204 51 127
-0.098313 0.011218 -0.068500 204 51 127
0.048993 0.487804 -0.308705 255 0 0
-0.383464 0.218251 0.259904 76 0 153
0.143078 -0.084209 -0.179991 204 51 127
-0.266819 0.465426 -0.325457 255 0 0
0.092969 -0.084209 0.342160 204 51 127
-0.165338 0.638307 -0.390076 255 0 0
0.098669 0.007339 0.319885 204 51 127
0.291337 -0.340100 -0.127260 153 76 0
0.112219 -0.041839 -0.295401 204 51 127
0.303236 -0.084115 0.010358 204 51 127
-0.150112 -0.084209 0.005421 204 51 127
-0.304523 -0.375633 0.377990 153 0 76
0.287203 0.082831 -0.254890 255 0 0
-0.094425 -0.084209 0.046966 204 51 127
-0.211263 0.532793 -0.315012 255 0 0
0.383053 0.135871 -0.045660 153 0 76
-0.390572 0.167996 -0.045687 153 76 0
-0.196037 -0.084209 0.062252 204 51 127
-0.293865 -0.672819 0.361080 153 0 76
0.289066 -0.550562 -0.162287 153 76 0
0.322480 -0.679555 -0.233032 153 76 0
0.299827 -0.009523 0.424568 204 51 127
-0.251431 0.382178 -0.295917 255 0 0
-0.008349 0.610213 -0.381083 255 0 0
-0.294564 0.650005 -0.386178 255 0 0
0.371366 0.091936 0.259534 204 51 127
-0.322546 -0.084204 -0.014540 204 51 127
0.160982 0.656858 -0.346764 255 0 0
-0.293761 -0.134051 -0.176443 76 0 153
-0.205527 0.080383 -0.315249 255 0 0
0.230104 -0.084209 0.139449 204 51 127
-0.136657 0.556012 -0.318269 255 0 0
0.312090 -0.011539 0.341117 204 51 127
-0.383431 0.317602 -0.225865 153 0 76
-0.306898 -0.007111 0.194906 204 51 127
0.100794 0.014331 0.237593 204 51 127
0.035346 0.565146 -0.319553 255 0 0
-0.321642 0.335327 -0.265561 153 0 76
-0.300666 -0.330661 -0.137111 76 0 153
-0.078441 0.502728 -0.310813 255 0 0
-0.071895 -0.084209 0.310527 204 51 127
0.311268 -0.357187 0.429680 76 0 153
0.389336 0.347306 0.177805 76 0 153
0.062761 0.156496 -0.262121 255 0 0
0.325597 -0.058474 -0.153995 204 51 127
-0.348470 -0.223792 -0.197157 76 0 153
-0.270871 -0.014981 0.463995 204 51 127
-0.294346 -0.533151 0.439175 153 0 76
0.325660 -0.496969 -0.119120 153 76 0
-0.333008 -0.477646 -0.080211 76 0 153
0.379146 0.347107 0.124264 76 0 153
-0.348547 -0.045091 0.007340 204 51 127
0.329766 0.337074 -0.200220 76 0 153
0.166742 0.479762 -0.307562 255 0 0
0.248015 -0.084209 0.004377 204 51 127
0.058645 0.269634 -0.278047 255 0 0
0.281273 -0.366854 -0.171205 153 76 0
0.275569 0.058405 -0.248553 255 0 0
-0.187856 0.026286 -0.314837 255 0 0
-0.024995 -0.084209 0.386922 204 51 127
0.119371 -0.083696 0.449690 204 51 127
-0.020831 -0.084209 0.248862 204 51 127
0.325687 -0.033757 0.434226 204 51 127
0.161583 0.010907 0.081764 204 51 127
-0.026458 0.152938 -0.261621 255 0 0
0.095002 -0.084209 0.194276 204 51 127
-0.191048 0.308602 -0.348245 255 0 0
0.323175 -0.327279 0.345437 76 0 153
0.014479 0.614714 -0.356857 255 0 0
-0.083800 0.016763 0.141878 204 51 127
-0.043781 0.396167 -0.295845 255 0 0
0.325678 -0.292451 -0.195561 153 76 0
-0.260758 -0.085862 -0.140120 204 51 127
-0.279281 -0.009979 -0.307794 255 0 0
-0.294778 -0.652686 0.368386 153 0 76
0.324820 -0.314509 -0.192099 153 76 0
-0.029876 0.203359 -0.268707 255 0 0
0.306959 0.029002 -0.256323 255 0 0
0.297303 -0.006018 -0.067008 204 51 127
0.319903 -0.142150 0.375649 76 0 153
-0.047847 0.444015 -0.302528 255 0 0
-0.139591 0.013941 0.243866 204 51 127
0.270887 -0.547374 0.402799 76 0 153
-0.318083 -0.082103 -0.244655 204 51 127
0.129308 0.013096 0.225648 204 51 127
0.297367 -0.797634 -0.227301 153 76 0
-0.165353 0.007942 -0.237480 255 0 0
-0.182729 0.010957 0.010508 204 51 127
0.271618 -0.121493 0.334448 76 0 153
-0.165605 0.076405 -0.250865 255 0 0
0.347979 0.161076 -0.053793 153 0 76
0.193071 0.458492 -0.370902 255 0 0
0.248283 0.271994 -0.330482 255 0 0
-0.413240 0.317319 -0.107287 153 0 76
-0.348503 -0.652938 -0.182461 76 0 153
-0.363814 0.070909 -0.065569 153 76 0
-0.022334 0.415519 -0.298525 255 0 0
-0.263728 0.287172 -0.281599 255 0 0
-0.348388 -0.470535 0.445566 153 0 76
-0.078634 0.016771 0.038915 204 51 127
0.309422 -0.523231 -0.087901 153 76 0
0.300945 0.746995 -0.362677 255 0 0
0.242547 -0.084675 0.411946 204 51 127
-0.192489 -0.029766 0.476103 204 51 127
0.317623 0.789499 -0.392956 255 0 0
-0.135660 0.012185 0.282893 204 51 127
-0.055608 0.018049 0.138613 204 51 127
-0.188874 0.251066 -0.275536 255 0 0
0.379967 0.317629 -0.009057 76 0 153
0.168237 0.079612 -0.318574 255 0 0
0.397016 0.155087 0.262691 204 51 127
-0.233076 -0.084208 0.367581 204 51 127
0.184625 0.611683 -0.326107 255 0 0
-0.256689 0.701702 -0.379791 255 0 0
-0.289878 -0.086001 -0.115772 204 51 127
-0.339412 -0.012857 0.215851 204 51 127
-0.129800 0.003537 0.349448 204 51 127
0.209551 0.685703 -0.342846 255 0 0
0.157085 0.007513 0.320098 204 51 127
-0.117031 0.186735 -0.266371 255 0 0
0.308033 -0.092788 0.323044 204 51 127
0.044739 0.011327 -0.064842 204 51 127
0.114926 0.015707 -0.306332 255 0 0
0.229763 -0.084209 -0.069315 204 51 127
-0.298839 -0.456535 0.461681 153 0 76
-0.439744 0.331449 0.119177 153 0 76
0.317501 -0.222310 -0.179381 153 76 0
-0.323065 -0.085490 -0.114522 204 51 127
-0.303373 -0.710690 -0.179223 76 0 153
-0.361046 0.345393 0.471387 153 0 76
0.162163 -0.084209 0.297171 204 51 127
-0.278639 -0.087671 -0.217168 204 51 127
0.270984 -0.265908 -0.206913 153 76 0
-0.348539 -0.260289 -0.201100 76 0 153
-0.350623 -0.039409 0.318030 204 51 127
-0.303679 -0.006680 -0.124859 204 51 127
-0.348530 -0.499622 -0.119282 76 0 153
-0.309039 -0.506840 -0.084006 76 0 153
-0.297082 -0.006035 0.394486 204 51 127
0.009429 0.109144 -0.319335 255 0 0
0.361086 0.320827 0.052096 76 0 153
0.261031 0.191044 -0.274636 255 0 0
0.326149 -0.073559 -0.101800 204 51 127
0.208236 0.576103 -0.384821 255 0 0
0.395923 0.344088 -0.123321 76 0 153
0.414350 0.339385 0.014880 76 0 153
-0.012610 0.483938 -0.374799 255 0 0
0.146409 -0.084209 0.121092 204 51 127
