ply
format ascii 1.0
element vertex 1255
property float x
property float y
property float z
property uchar red
property uchar green
property uchar blue
end_header
-0.184785 0.214616 -0.272639 255 0 0
0.304137 -0.562603 -0.165933 153 76 0
0.271163 -0.081880 0.181506 204 51 127
-0.346226 -0.015774 -0.227759 204 51 127
-0.210408 0.005456 0.014066 204 51 127
-0.123241 0.306085 -0.285494 255 0 0
-0.263377 0.433369 -0.361645 255 0 0
-0.346226 -0.435984 0.403655 153 0 76
-0.400632 0.345011 0.124885 153 0 76
0.229069 -0.000763 0.293018 204 51 127
0.202924 0.186059 -0.327794 255 0 0
-0.346226 -0.554582 0.434533 153 0 76
0.092682 -0.081880 0.347129 204 51 127
-0.346226 -0.080529 -0.235880 204 51 127
0.305611 -0.734632 -0.240057 153 76 0
0.303953 0.323301 -0.338236 76 0 153
0.146391 -0.081880 0.115017 204 51 127
-0.336008 -0.839771 0.343583 153 0 76
0.273186 -0.831119 0.342216 76 0 153
-0.191945 0.654884 -0.374525 255 0 0
0.232937 -0.081880 -0.153097 204 51 127
-0.002676 -0.018438 -0.265433 204 51 127
-0.346226 -0.697582 0.329747 153 0 76
0.026715 -0.012775 0.447742 204 51 127
0.278416 -0.305214 0.387882 76 0 153
-0.277594 -0.006889 0.406538 204 51 127
-0.284675 0.123331 -0.259809 255 0 0
-0.161995 0.459349 -0.307034 255 0 0
0.298184 -0.011132 0.311465 204 51 127
-0.346226 -0.599066 0.384438 153 0 76
0.392716 0.094051 0.264082 204 51 127
0.119555 0.012017 0.022344 204 51 127
0.299567 -0.375484 0.380565 76 0 153
-0.296003 -0.302721 -0.159693 76 0 153
0.273186 -0.123753 -0.161472 153 76 0
-0.172105 -0.081880 -0.078021 204 51 127
0.122248 0.331161 -0.356640 255 0 0
0.323408 -0.039242 -0.243842 204 51 127
0.376093 0.319900 0.163356 76 0 153
-0.166692 0.631323 -0.331203 255 0 0
-0.133201 -0.081880 -0.059344 204 51 127
0.111916 -0.019752 -0.274783 255 0 0
0.152186 -0.081880 -0.159824 204 51 127
-0.433064 0.226515 0.274333 76 0 153
-0.277527 -0.011067 -0.213434 204 51 127
0.252733 0.141608 -0.321547 255 0 0
0.240653 0.443658 -0.305456 255 0 0
-0.273418 0.098214 -0.315448 255 0 0
-0.069801 0.004833 0.324488 204 51 127
0.159056 -0.081880 -0.086183 204 51 127
-0.296003 -0.556544 0.417303 153 0 76
0.066559 -0.081880 0.045538 204 51 127
-0.204209 0.456964 -0.365867 255 0 0
-0.346226 -0.307821 0.380649 153 0 76
0.273186 -0.437329 0.402322 76 0 153
0.323408 -0.370299 -0.153053 153 76 0
0.233419 -0.080364 -0.249487 204 51 127
-0.304576 0.748783 -0.373743 255 0 0
0.305410 -0.081880 0.380424 204 51 127
-0.346226 -0.341142 0.406306 153 0 76
-0.112250 -0.081880 0.252725 204 51 127
-0.335407 -0.726210 -0.181768 76 0 153
0.111312 -0.080600 -0.248460 204 51 127
0.296889 -0.010939 -0.110307 204 51 127
0.366933 0.111967 -0.072989 153 0 76
-0.314204 -0.096366 -0.143662 204 51 127
-0.346226 -0.062345 0.013039 204 51 127
0.214811 0.544475 -0.378166 255 0 0
0.323408 -0.173795 0.309688 76 0 153
0.414766 0.345012 0.117766 76 0 153
0.035507 0.070181 -0.311509 255 0 0
-0.265858 0.703933 -0.400272 255 0 0
0.029350 0.012815 -0.009562 204 51 127
-0.346226 -0.033922 0.142433 204 51 127
0.317713 -0.116838 -0.157113 153 76 0
0.098102 0.008090 0.301710 204 51 127
0.352011 0.265645 0.283977 204 51 127
-0.204635 0.006322 -0.081618 204 51 127
0.022281 0.009847 -0.067034 204 51 127
-0.114114 0.050079 -0.308683 255 0 0
-0.002759 0.013266 -0.000099 204 51 127
-0.332243 -0.641513 -0.221627 76 0 153
-0.218324 0.088247 -0.254879 255 0 0
0.286169 -0.103782 0.395095 76 0 153
0.172295 -0.081880 -0.106000 204 51 127
0.340354 0.319900 0.378503 76 0 153
-0.020411 -0.081880 0.038640 204 51 127
-0.028728 -0.081880 0.072738 204 51 127
0.372594 0.319900 0.374603 76 0 153
-0.148454 0.437882 -0.363186 255 0 0
0.342616 0.075550 -0.072984 153 0 76
0.034160 0.532770 -0.376521 255 0 0
-0.246831 0.462617 -0.307493 255 0 0
-0.028578 0.599231 -0.326693 255 0 0
-0.010502 -0.053072 -0.288164 204 51 127
-0.346226 -0.710290 0.346813 153 0 76
0.273186 -0.094191 -0.193344 153 76 0
0.414219 0.320197 0.160608 76 0 153
0.248466 0.255520 -0.333425 255 0 0
-0.359679 -0.003653 -0.072981 153 76 0
0.015741 0.010229 0.286246 204 51 127
0.323474 -0.067015 0.122522 204 51 127
-0.297257 -0.589441 0.417674 153 0 76
0.353708 0.181716 0.261846 204 51 127
0.084486 -0.081880 -0.194145 204 51 127
0.120515 0.127484 -0.319562 255 0 0
-0.396568 0.319900 0.008704 153 0 76
-0.398419 0.042139 -0.065967 153 76 0
-0.143839 0.011943 0.038485 204 51 127
-0.302123 -0.713570 -0.240108 76 0 153
0.040607 0.433462 -0.303396 255 0 0
0.075378 -0.081880 0.267496 204 51 127
-0.255731 0.219093 -0.273268 255 0 0
-0.233669 0.001967 0.166927 204 51 127
0.014658 -0.081880 -0.031667 204 51 127
0.323408 -0.420034 -0.134889 153 76 0
0.020138 -0.081880 0.051842 204 51 127
0.289226 -0.081880 -0.148423 204 51 127
0.094640 0.158753 -0.264788 255 0 0
0.367515 0.017437 -0.054888 153 0 76
-0.232362 -0.003129 -0.157862 204 51 127
-0.147290 0.010800 0.274229 204 51 127
-0.029884 0.004384 0.327627 204 51 127
0.323512 -0.035957 0.043449 204 51 127
-0.346226 -0.424013 -0.144422 76 0 153
-0.296003 -0.663366 -0.206447 76 0 153
-0.257643 -0.081880 -0.143623 204 51 127
-0.303880 -0.647902 -0.224558 76 0 153
-0.373018 0.334907 0.268806 153 0 76
-0.028803 -0.004749 0.391559 204 51 127
0.278264 -0.753533 0.306084 76 0 153
-0.179108 -0.081880 0.113802 204 51 127
0.013438 -0.081880 -0.139229 204 51 127
0.066635 0.516784 -0.374275 255 0 0
0.273186 -0.170963 0.311260 76 0 153
-0.068312 0.524860 -0.316241 255 0 0
0.128256 0.011582 0.047284 204 51 127
0.229066 -0.081880 0.135979 204 51 127
-0.346226 -0.056345 0.045659 204 51 127
0.228782 0.069414 -0.319854 255 0 0
-0.242761 0.000603 0.135589 204 51 127
-0.343790 -0.529737 -0.150677 76 0 153
0.242611 0.475626 -0.325148 255 0 0
-0.238886 -0.081880 0.339433 204 51 127
-0.316468 -0.514920 -0.087539 76 0 153
-0.083954 0.248842 -0.336618 255 0 0
0.273186 -0.327068 0.353737 76 0 153
-0.191313 -0.081880 0.420969 204 51 127
0.149497 0.201678 -0.329989 255 0 0
0.282632 -0.799792 0.319724 76 0 153
0.255473 0.722635 -0.351839 255 0 0
-0.097205 0.585439 -0.389660 255 0 0
0.009883 0.004990 -0.101033 204 51 127
-0.293356 0.716138 -0.402292 255 0 0
-0.296003 -0.609602 0.395517 153 0 76
-0.110846 0.013593 0.208086 204 51 127
0.159545 -0.021018 -0.283794 255 0 0
0.059066 0.010947 -0.048794 204 51 127
-0.153319 -0.014017 -0.299675 255 0 0
-0.318186 -0.407829 0.453262 153 0 76
0.123765 0.090739 -0.314398 255 0 0
-0.326675 -0.250002 -0.236146 76 0 153
-0.062031 0.377585 -0.295543 255 0 0
0.276649 -0.160508 0.368946 76 0 153
-0.086224 0.014078 0.205402 204 51 127
0.372176 0.345012 0.174722 76 0 153
-0.398346 0.248840 -0.047882 153 76 0
0.316336 -0.204302 0.362385 76 0 153
0.120822 0.519464 -0.374651 255 0 0
-0.318554 -0.142336 0.374903 153 0 76
0.411897 0.344777 -0.035404 76 0 153
0.292082 0.762688 -0.369300 255 0 0
0.192058 -0.004677 0.391072 204 51 127
-0.299594 -0.416553 -0.088174 76 0 153
0.221881 0.257781 -0.278705 255 0 0
0.301348 -0.081880 0.331565 204 51 127
0.075177 0.014236 0.192505 204 51 127
-0.346226 -0.200919 -0.190513 76 0 153
-0.296003 -0.831394 0.339144 153 0 76
-0.067113 -0.081880 0.176602 204 51 127
0.200723 -0.048206 0.462736 204 51 127
0.391268 0.292392 -0.072995 153 0 76
-0.346226 -0.075108 0.234791 204 51 127
-0.127396 0.459668 -0.307079 255 0 0
0.253904 -0.017592 0.465782 204 51 127
-0.287871 0.625044 -0.370864 255 0 0
-0.103351 -0.067266 0.462736 204 51 127
-0.239345 0.001115 0.036461 204 51 127
-0.086432 -0.081880 0.040561 204 51 127
-0.205999 0.005187 0.322008 204 51 127
-0.097924 -0.013303 -0.229080 204 51 127
-0.098282 0.011541 0.258679 204 51 127
0.085492 0.042825 -0.307664 255 0 0
-0.346226 -0.285149 0.334067 153 0 76
0.091110 0.320572 -0.287530 255 0 0
-0.164272 -0.012452 0.445484 204 51 127
0.216334 0.001151 0.099436 204 51 127
-0.391702 0.130131 -0.047877 153 76 0
-0.314308 -0.128095 -0.221611 76 0 153
-0.342428 -0.259643 0.368866 153 0 76
0.068095 0.272224 -0.339904 255 0 0
0.273186 -0.642030 -0.168355 153 76 0
-0.304379 0.336817 -0.279754 153 0 76
-0.119774 0.048395 -0.249278 255 0 0
-0.282316 -0.081880 0.158765 204 51 127
-0.290619 -0.006776 -0.183392 204 51 127
0.186532 -0.019410 0.462736 204 51 127
-0.320655 -0.396940 0.390713 153 0 76
0.015071 0.037886 -0.247801 255 0 0
-0.346226 -0.337606 0.386560 153 0 76
-0.411003 0.084126 0.261846 76 0 153
0.314741 -0.013617 0.383810 204 51 127
0.164231 0.608961 -0.328060 255 0 0
-0.206616 0.002442 -0.118867 204 51 127
-0.090192 -0.081880 0.370443 204 51 127
0.143570 0.319385 -0.287363 255 0 0
-0.205543 0.622938 -0.389194 255 0 0
0.323408 -0.482686 -0.128577 153 76 0
0.202166 0.405827 -0.367133 255 0 0
0.323408 -0.032996 0.308419 204 51 127
0.320536 -0.611608 -0.203636 153 76 0
0.131163 -0.005400 0.396129 204 51 127
-0.278811 0.207000 -0.320930 255 0 0
-0.333929 -0.344537 -0.184879 76 0 153
-0.029761 0.212161 -0.331463 255 0 0
0.059903 0.562969 -0.321597 255 0 0
-0.004394 0.013261 0.222561 204 51 127
-0.346226 -0.511357 0.402128 153 0 76
0.165931 -0.081880 -0.174510 204 51 127
0.230788 0.195288 -0.329091 255 0 0
0.363394 0.319900 0.485104 76 0 153
0.323482 -0.080741 0.106712 204 51 127
0.251171 0.241322 -0.293298 255 0 0
0.277105 -0.610555 -0.144269 153 76 0
0.071828 -0.015894 -0.247333 255 0 0
0.029004 0.295114 -0.343121 255 0 0
-0.334240 -0.653629 -0.168355 76 0 153
0.119571 -0.030753 0.462736 204 51 127
-0.087603 0.568549 -0.322381 255 0 0
-0.130673 -0.081880 -0.167907 204 51 127
0.277136 -0.136221 -0.225297 153 76 0
0.231878 -0.081880 0.273032 204 51 127
-0.275758 -0.081880 -0.012778 204 51 127
-0.339494 -0.496884 0.460342 153 0 76
0.323408 -0.728252 -0.190251 153 76 0
-0.141511 0.617413 -0.329248 255 0 0
0.320629 -0.086126 0.350114 76 0 153
0.357285 0.319900 -0.237152 76 0 153
0.356471 0.345012 0.212348 76 0 153
-0.295744 -0.081880 0.036562 204 51 127
-0.275508 -0.081880 0.241456 204 51 127
0.049496 0.558080 -0.380078 255 0 0
-0.229188 0.389308 -0.356359 255 0 0
-0.327134 -0.765218 -0.177151 76 0 153
0.319894 -0.081880 0.041184 204 51 127
-0.346226 -0.039800 -0.165249 204 51 127
0.323408 -0.067851 -0.187721 204 51 127
-0.102896 0.243286 -0.276668 255 0 0
-0.346226 -0.832100 -0.191996 76 0 153
0.215350 0.225241 -0.341754 255 0 0
0.074517 -0.057273 -0.285171 204 51 127
0.271589 0.735025 -0.386333 255 0 0
-0.255404 0.677264 -0.337660 255 0 0
0.370968 0.193479 0.286957 204 51 127
0.177164 0.555530 -0.379720 255 0 0
-0.073571 0.601936 -0.327073 255 0 0
-0.180100 -0.009236 -0.200611 204 51 127
0.224575 0.108630 -0.316912 255 0 0
-0.011595 0.010368 0.283312 204 51 127
0.169481 0.571367 -0.322777 255 0 0
0.141819 0.166336 -0.325022 255 0 0
0.311666 -0.089891 -0.138555 204 51 127
0.081303 0.619324 -0.381640 255 0 0
0.049807 0.131412 -0.260945 255 0 0
-0.161672 0.582798 -0.383552 255 0 0
0.392817 0.254677 -0.047880 153 0 76
0.266003 0.632646 -0.348292 255 0 0
0.203580 0.209730 -0.271952 255 0 0
0.085305 0.083382 -0.313364 255 0 0
0.311147 -0.236458 0.305530 76 0 153
-0.124916 -0.080941 -0.246838 204 51 127
0.360294 0.092020 -0.047886 153 0 76
0.161024 -0.081880 0.384149 204 51 127
0.017120 0.017139 0.094650 204 51 127
-0.067167 0.183272 -0.327403 255 0 0
-0.393236 0.319900 0.048466 153 0 76
-0.132223 -0.050992 0.479276 204 51 127
0.038728 0.016058 0.062448 204 51 127
-0.263665 0.343599 -0.340379 255 0 0
-0.143210 0.472690 -0.308909 255 0 0
-0.239869 -0.081880 -0.011035 204 51 127
0.349820 0.305432 0.285469 76 0 153
-0.421446 0.345011 0.190253 153 0 76
0.307391 -0.810447 -0.219265 153 76 0
0.016751 -0.081880 0.433771 204 51 127
-0.055523 0.008895 -0.073700 204 51 127
-0.259928 0.507263 -0.372937 255 0 0
-0.253579 0.174641 -0.267021 255 0 0
0.058400 -0.081880 0.432351 204 51 127
-0.296003 -0.364475 0.380819 153 0 76
-0.406912 0.134179 -0.072991 153 76 0
-0.260435 -0.081880 -0.214031 204 51 127
-0.165502 0.003126 -0.242916 255 0 0
-0.099535 -0.081880 0.078456 204 51 127
-0.296911 -0.587737 0.360511 153 0 76
-0.383023 0.269379 -0.072995 153 76 0
-0.242901 -0.081880 0.395819 204 51 127
-0.409108 0.319900 0.292766 153 0 76
-0.221337 0.120926 -0.259472 255 0 0
0.180258 0.340105 -0.357733 255 0 0
-0.346226 -0.383624 0.413296 153 0 76
0.321917 -0.366519 0.433876 76 0 153
0.384416 0.065551 0.286677 204 51 127
-0.346226 -0.022888 0.268300 76 0 153
0.380783 0.319900 -0.083340 76 0 153
-0.233702 0.613401 -0.387853 255 0 0
-0.015766 0.010445 -0.059346 204 51 127
0.104513 0.152372 -0.323060 255 0 0
-0.181866 0.594499 -0.326028 255 0 0
0.261120 -0.081880 0.420340 204 51 127
0.297509 -0.249318 -0.236295 153 76 0
-0.370732 0.319900 -0.195251 153 0 76
-0.245527 -0.081880 0.202810 204 51 127
-0.426461 0.344104 0.311207 153 0 76
0.377627 0.345012 0.104734 76 0 153
0.293028 -0.328676 -0.198683 153 76 0
0.160667 0.544059 -0.318939 255 0 0
-0.239278 0.001125 0.108440 204 51 127
-0.189831 0.333113 -0.348461 255 0 0
0.054209 0.025052 -0.245997 255 0 0
0.212531 0.001715 -0.086448 204 51 127
0.222443 0.443424 -0.363965 255 0 0
0.286594 -0.009388 0.012965 204 51 127
-0.397270 0.319900 0.336477 153 0 76
0.029939 -0.081880 0.137261 204 51 127
0.055040 -0.081880 -0.078335 204 51 127
0.189251 0.671798 -0.337790 255 0 0
-0.206054 0.006109 0.079031 204 51 127
0.323408 -0.500674 0.455728 76 0 153
-0.186847 0.259862 -0.343961 255 0 0
-0.342050 -0.364955 -0.111189 76 0 153
0.004020 0.430789 -0.303020 255 0 0
-0.315510 -0.479469 -0.140357 76 0 153
-0.246646 0.073326 -0.252782 255 0 0
-0.279834 -0.004958 0.227727 204 51 127
0.283923 -0.511197 0.398883 76 0 153
0.304001 -0.446667 0.403052 76 0 153
0.273186 -0.217644 -0.208395 153 76 0
-0.255085 -0.020363 -0.279128 255 0 0
-0.312473 -0.232072 0.304968 153 0 76
0.191871 0.569828 -0.322561 255 0 0
0.004964 -0.073282 0.471207 204 51 127
0.141901 0.335814 -0.348841 255 0 0
-0.032624 0.016851 0.147160 204 51 127
0.323408 -0.269319 0.326898 76 0 153
0.177306 0.534313 -0.376738 255 0 0
0.121817 0.011904 -0.016567 204 51 127
0.403753 0.341173 -0.134839 76 0 153
0.119681 0.632223 -0.374918 255 0 0
0.268475 -0.081880 0.315319 204 51 127
0.009509 0.016442 0.155770 204 51 127
0.376570 0.246909 -0.072994 153 0 76
-0.078439 -0.081880 0.113761 204 51 127
-0.305237 -0.032961 0.462736 204 51 127
0.211856 -0.021895 -0.290034 204 51 127
-0.424017 0.319900 0.277101 153 0 76
0.323408 -0.123717 -0.205360 153 76 0
0.195000 -0.081880 0.107581 204 51 127
0.027413 -0.081880 0.362226 204 51 127
0.190564 -0.081880 -0.166746 204 51 127
-0.412028 0.263628 -0.072994 153 76 0
0.106270 0.249603 -0.277556 255 0 0
0.323408 -0.539213 0.437941 76 0 153
0.323408 -0.029765 -0.191065 204 51 127
-0.219970 0.425296 -0.361417 255 0 0
0.387736 0.319900 0.337717 76 0 153
0.058311 0.309962 -0.345208 255 0 0
0.251300 0.067066 -0.319523 255 0 0
0.232134 -0.004819 -0.169698 204 51 127
0.017922 0.014726 0.030554 204 51 127
-0.309767 -0.364181 -0.170283 76 0 153
-0.237858 0.354222 -0.292259 255 0 0
-0.269127 0.273602 -0.334628 255 0 0
-0.340780 -0.258088 -0.175628 76 0 153
0.273186 -0.253882 -0.196674 153 76 0
0.285471 -0.081880 -0.239456 204 51 127
-0.258918 0.704495 -0.353122 255 0 0
-0.335126 0.792203 -0.373459 255 0 0
-0.128319 0.167663 -0.266040 255 0 0
0.292636 -0.352618 -0.119801 153 76 0
0.096544 0.008006 -0.243602 255 0 0
-0.029894 0.350878 -0.350958 255 0 0
-0.420971 0.319900 0.087573 153 0 76
0.069121 0.202980 -0.338625 255 0 0
-0.167405 -0.050282 -0.289889 204 51 127
0.323408 -0.060786 -0.274370 204 51 127
0.115303 -0.044638 -0.292804 204 51 127
-0.271470 -0.003704 0.167777 204 51 127
-0.375350 0.289344 0.264323 76 0 153
-0.085385 0.069557 -0.252252 255 0 0
-0.123815 0.440695 -0.304412 255 0 0
0.005046 0.536882 -0.317930 255 0 0
-0.175493 -0.036152 0.477608 204 51 127
0.273186 -0.503921 0.417485 76 0 153
0.167474 0.593516 -0.385059 255 0 0
0.356631 0.040930 0.286957 204 51 127
-0.110838 -0.046147 0.479302 204 51 127
-0.216269 0.221664 -0.273629 255 0 0
-0.366820 -0.042303 0.273521 76 0 153
-0.030141 -0.057987 -0.284611 204 51 127
0.369305 0.253034 0.286957 204 51 127
0.183806 0.659469 -0.394328 255 0 0
-0.375198 0.199766 0.279220 76 0 153
-0.296003 -0.474059 0.407285 153 0 76
0.291217 -0.230399 0.363372 76 0 153
0.320049 -0.610107 0.341553 76 0 153
0.309523 -0.081880 0.411480 76 0 153
0.276610 -0.274430 0.314934 76 0 153
0.219674 0.598681 -0.385784 255 0 0
0.350997 0.261779 -0.063328 153 0 76
0.274332 -0.589174 0.417902 76 0 153
0.310111 -0.607439 0.402189 76 0 153
-0.296003 -0.402536 0.447327 153 0 76
-0.346226 -0.062537 0.142700 204 51 127
-0.003680 -0.008505 -0.195499 204 51 127
-0.199415 -0.081880 0.450669 204 51 127
-0.311306 -0.502938 -0.143399 76 0 153
-0.296003 -0.169734 -0.184751 76 0 153
-0.296003 -0.790711 0.368948 153 0 76
0.229831 -0.081880 -0.110201 204 51 127
0.267131 -0.081880 -0.156215 204 51 127
-0.168187 -0.063718 0.476440 204 51 127
-0.083846 0.005693 -0.243277 255 0 0
-0.277238 -0.081880 0.301978 204 51 127
0.305765 -0.162232 0.368486 76 0 153
0.063788 0.012640 -0.013245 204 51 127
0.050284 0.082802 -0.313282 255 0 0
0.361503 0.345021 -0.272137 76 0 153
0.091625 0.002047 0.344014 204 51 127
0.279066 -0.022137 -0.291754 255 0 0
-0.057608 0.455877 -0.374167 255 0 0
0.273186 -0.483055 -0.087795 153 76 0
-0.189961 0.009581 -0.302992 255 0 0
-0.095282 -0.081880 0.405221 204 51 127
0.047626 0.002910 0.337957 204 51 127
0.178497 0.156440 -0.323631 255 0 0
-0.297054 -0.081880 0.460912 204 51 127
-0.367336 0.319900 -0.266429 153 0 76
-0.346226 -0.229643 0.346788 153 0 76
0.386774 0.324652 -0.259823 76 0 153
0.302453 -0.286696 -0.165635 153 76 0
0.081745 0.624848 -0.343103 255 0 0
-0.040225 -0.081880 0.357074 204 51 127
0.173539 0.190412 -0.269237 255 0 0
-0.219388 0.590293 -0.325437 255 0 0
0.379819 0.319900 -0.121544 76 0 153
0.231637 -0.062093 0.462736 204 51 127
0.323408 -0.040901 -0.086990 204 51 127
0.273186 -0.374778 -0.118344 153 76 0
-0.032667 0.553304 -0.320238 255 0 0
0.308692 -0.081880 0.002577 204 51 127
-0.266107 0.478854 -0.367008 255 0 0
0.099149 -0.081880 0.309836 204 51 127
-0.070103 -0.020533 -0.280338 255 0 0
-0.296003 -0.382956 -0.109492 76 0 153
0.395354 0.114409 -0.051851 153 0 76
-0.149567 0.011657 0.100221 204 51 127
-0.022668 0.008432 0.299295 204 51 127
0.342721 0.012578 0.286957 204 51 127
-0.219469 0.672891 -0.364458 255 0 0
-0.010760 -0.081880 0.345625 204 51 127
-0.165388 -0.081880 0.093977 204 51 127
0.140204 -0.021145 -0.284698 255 0 0
-0.344935 -0.113310 -0.213656 204 51 127
0.048818 0.375103 -0.354363 255 0 0
0.219588 0.422842 -0.301903 255 0 0
-0.305945 -0.783918 0.313575 153 0 76
0.257098 0.124378 -0.259957 255 0 0
-0.197670 -0.002613 0.376610 204 51 127
0.279083 0.683560 -0.397714 255 0 0
0.286392 -0.057119 0.462736 204 51 127
-0.296003 -0.243495 -0.187598 76 0 153
-0.016352 -0.004137 -0.164917 204 51 127
0.036141 -0.081880 0.269396 204 51 127
-0.282724 0.190195 -0.289351 255 0 0
-0.016350 -0.081880 0.219005 204 51 127
-0.240155 0.153539 -0.264055 255 0 0
-0.366961 -0.039988 -0.056361 153 76 0
-0.312277 -0.421207 -0.145548 76 0 153
0.268925 -0.081880 0.056529 204 51 127
-0.021408 -0.081880 -0.112518 204 51 127
0.303031 -0.820810 0.330592 76 0 153
-0.327903 -0.705780 0.363138 153 0 76
0.273186 -0.740028 -0.189140 153 76 0
-0.305962 0.319900 -0.325188 153 0 76
-0.118660 0.242670 -0.335750 255 0 0
0.273186 -0.234023 0.310573 76 0 153
0.273186 -0.554190 -0.155690 153 76 0
-0.346226 -0.709236 -0.189180 76 0 153
0.288469 -0.099338 0.339621 76 0 153
-0.126029 0.009072 -0.302920 255 0 0
0.273186 -0.479214 -0.135356 153 76 0
-0.016623 0.117694 -0.259017 255 0 0
0.098070 0.013092 0.061393 204 51 127
0.127958 -0.081880 -0.160404 204 51 127
0.069405 -0.005830 -0.176770 204 51 127
-0.389175 0.319900 -0.084744 153 0 76
0.323408 -0.035307 0.346153 204 51 127
0.391639 0.183634 0.261846 204 51 127
0.279920 -0.338395 -0.131727 153 76 0
-0.276372 0.223880 -0.305513 255 0 0
0.142160 0.645664 -0.344947 255 0 0
0.349755 0.017013 0.261846 204 51 127
-0.379612 0.326980 0.129011 153 0 76
0.320784 -0.013759 -0.278418 204 51 127
0.285086 0.015992 -0.303893 255 0 0
-0.296003 -0.164450 0.312774 153 0 76
-0.240881 0.020242 -0.245321 255 0 0
0.273186 -0.573183 -0.122677 153 76 0
0.262779 -0.056357 0.478620 204 51 127
0.139930 0.076178 -0.253183 255 0 0
0.195588 0.628344 -0.330785 255 0 0
-0.032119 -0.081880 -0.194952 204 51 127
-0.209751 0.328588 -0.288656 255 0 0
0.095393 0.013226 0.102362 204 51 127
-0.316815 -0.122302 0.325386 153 0 76
0.289665 -0.421313 0.457149 76 0 153
-0.298705 -0.673631 -0.175061 76 0 153
0.108600 -0.038635 0.478194 204 51 127
-0.304169 -0.008608 0.078984 204 51 127
0.363260 0.006846 -0.070453 153 0 76
0.163440 -0.032119 0.476050 204 51 127
-0.346226 -0.060169 0.462773 204 51 127
0.240877 0.476942 -0.368675 255 0 0
0.216224 -0.081880 0.077639 204 51 127
-0.346226 -0.045254 0.282596 76 0 153
-0.058300 0.373798 -0.354179 255 0 0
0.323508 -0.063340 -0.055926 204 51 127
0.002242 -0.076150 -0.261536 204 51 127
0.270261 -0.006940 -0.061911 204 51 127
0.085580 0.144154 -0.321905 255 0 0
0.321844 -0.209450 0.303703 76 0 153
-0.213919 0.004929 0.182995 204 51 127
0.292901 -0.843127 -0.139231 153 76 0
0.397080 0.322441 -0.190820 76 0 153
0.266472 -0.019272 -0.271370 255 0 0
-0.044860 -0.081880 0.323735 204 51 127
-0.346226 -0.057379 0.394673 204 51 127
0.273186 -0.525685 -0.103503 153 76 0
-0.296003 -0.145628 0.327533 153 0 76
0.323523 -0.059529 0.019586 204 51 127
0.306700 -0.244840 -0.178588 153 76 0
-0.330558 0.021154 -0.270307 255 0 0
0.323408 -0.632193 0.351956 76 0 153
0.323408 -0.780832 0.362841 76 0 153
0.319247 -0.148178 -0.171312 153 76 0
-0.243020 0.561461 -0.321385 255 0 0
-0.096591 0.622699 -0.344510 255 0 0
0.280037 -0.515285 -0.146229 153 76 0
-0.296003 -0.624402 -0.207967 76 0 153
0.126552 0.481721 -0.369347 255 0 0
-0.248188 -0.081880 -0.177126 204 51 127
-0.296003 -0.144343 -0.213426 76 0 153
-0.320317 -0.059034 -0.283763 204 51 127
0.068135 0.597756 -0.385654 255 0 0
-0.215805 -0.044445 0.479171 204 51 127
-0.296003 -0.275964 0.316656 153 0 76
-0.047249 0.271427 -0.280623 255 0 0
-0.288701 -0.057474 0.478356 204 51 127
0.109019 0.252909 -0.337189 255 0 0
0.179346 0.006699 0.113111 204 51 127
0.299941 -0.506335 -0.085497 153 76 0
-0.029028 0.079828 -0.253696 255 0 0
-0.251989 0.104876 -0.257216 255 0 0
-0.012799 -0.081880 0.324092 204 51 127
-0.010578 0.262941 -0.279430 255 0 0
0.295423 -0.634981 -0.159726 153 76 0
0.190989 0.001819 -0.123229 204 51 127
0.313962 -0.693556 -0.179379 153 76 0
-0.370883 0.345011 0.465243 153 0 76
0.323408 -0.576166 0.406061 76 0 153
0.041729 0.180958 -0.327077 255 0 0
0.230752 -0.012889 0.448542 204 51 127
-0.182337 0.529127 -0.316840 255 0 0
0.148967 0.140793 -0.321433 255 0 0
-0.275113 -0.081880 0.120211 204 51 127
0.119490 0.190627 -0.269267 255 0 0
-0.186924 0.194333 -0.269788 255 0 0
-0.042860 0.609570 -0.377441 255 0 0
0.373104 0.319900 0.107625 76 0 153
0.221952 -0.018078 -0.307557 255 0 0
-0.343163 -0.554468 0.382653 153 0 76
-0.266196 0.308645 -0.305153 255 0 0
-0.253952 -0.001076 0.004221 204 51 127
0.033891 0.014226 0.020067 204 51 127
-0.326858 -0.353949 0.366689 153 0 76
0.101383 -0.081880 0.191812 204 51 127
0.402629 0.168738 -0.072992 153 0 76
0.337543 -0.049487 0.286957 204 51 127
-0.292819 -0.081880 -0.023586 204 51 127
0.094822 0.012658 0.235246 204 51 127
-0.346226 -0.068743 -0.177519 204 51 127
0.356102 0.345012 0.389321 76 0 153
-0.113628 0.205448 -0.271350 255 0 0
-0.346226 -0.827918 -0.173231 76 0 153
0.226919 -0.081880 0.176529 204 51 127
-0.172959 -0.081880 0.200847 204 51 127
-0.200144 -0.081880 -0.148013 204 51 127
-0.115054 0.603945 -0.327355 255 0 0
0.319102 -0.611402 -0.144892 153 76 0
-0.102151 -0.081880 0.235109 204 51 127
0.284764 -0.017267 -0.257099 204 51 127
-0.372151 0.328788 -0.056345 153 0 76
0.094669 0.498641 -0.312556 255 0 0
-0.074965 0.013332 0.001297 204 51 127
-0.300612 -0.580009 -0.118883 76 0 153
0.046395 -0.033500 -0.296700 204 51 127
0.176618 0.106757 -0.257480 255 0 0
0.321024 -0.345497 -0.184071 153 76 0
-0.346226 -0.019490 0.329966 204 51 127
0.205607 0.002759 0.064016 204 51 127
-0.248661 0.271173 -0.280587 255 0 0
-0.207291 -0.081880 0.113339 204 51 127
0.323408 -0.505134 0.431146 76 0 153
-0.212973 -0.081880 -0.034470 204 51 127
0.085228 -0.012166 0.443481 204 51 127
-0.175779 0.413261 -0.368178 255 0 0
-0.059394 -0.081880 0.237163 204 51 127
-0.346226 -0.644199 -0.201875 76 0 153
0.326108 -0.077032 0.266578 204 51 127
-0.346226 -0.219230 -0.185277 76 0 153
0.323408 -0.583710 -0.147656 153 76 0
-0.346226 -0.099226 0.354444 153 0 76
-0.253570 -0.081880 0.144063 204 51 127
0.016066 0.610353 -0.370015 255 0 0
-0.133027 0.010820 -0.051459 204 51 127
-0.296003 -0.754311 -0.214130 76 0 153
0.227604 0.041156 -0.307429 255 0 0
0.006265 -0.008660 0.418942 204 51 127
0.323408 -0.562672 0.436206 76 0 153
0.346680 0.136343 -0.059399 153 0 76
-0.346226 -0.057809 0.320335 76 0 153
-0.392552 0.175274 -0.072991 153 76 0
0.344332 0.319900 -0.118785 76 0 153
-0.312656 -0.062592 0.476899 204 51 127
-0.286686 -0.017551 -0.259120 204 51 127
0.208369 0.679330 -0.376022 255 0 0
-0.431966 0.341023 0.251243 153 0 76
-0.083604 -0.065543 0.462736 204 51 127
0.043308 0.015830 0.148749 204 51 127
-0.333206 -0.369964 0.377395 153 0 76
-0.308228 -0.787835 -0.229137 76 0 153
0.323408 -0.713734 -0.206864 153 76 0
0.299124 -0.081880 0.159221 204 51 127
-0.025054 0.015209 0.040707 204 51 127
-0.383255 -0.005055 0.277876 76 0 153
-0.429920 0.175783 0.264216 76 0 153
-0.296003 -0.206268 0.304323 153 0 76
-0.200302 -0.011402 0.438128 204 51 127
-0.226061 -0.081880 0.238611 204 51 127
0.273186 -0.236511 -0.188947 153 76 0
0.241234 0.448761 -0.358716 255 0 0
0.374243 0.269515 0.261846 204 51 127
0.003737 0.118220 -0.259091 255 0 0
0.188982 -0.017110 -0.255985 255 0 0
-0.231951 0.150963 -0.322862 255 0 0
0.087888 0.564141 -0.321761 255 0 0
0.210886 0.001965 0.287294 204 51 127
0.323408 -0.694598 0.323963 76 0 153
0.273186 -0.743217 0.333884 76 0 153
-0.346226 -0.154858 0.329784 153 0 76
0.145439 0.463754 -0.374798 255 0 0
-0.234220 -0.081880 -0.048814 204 51 127
-0.314756 -0.237447 0.364265 153 0 76
0.323408 -0.748398 -0.200300 153 76 0
0.073075 -0.045970 0.462736 204 51 127
0.323408 -0.544382 -0.128800 153 76 0
0.156579 0.010109 -0.011536 204 51 127
-0.346226 -0.035029 0.043577 204 51 127
-0.112265 0.132829 -0.261144 255 0 0
-0.127659 0.630923 -0.347469 255 0 0
0.168469 -0.006317 0.402549 204 51 127
0.032037 0.203545 -0.271083 255 0 0
0.006596 -0.065553 -0.277512 204 51 127
-0.102394 0.191181 -0.328514 255 0 0
-0.019688 0.423279 -0.301965 255 0 0
0.129613 -0.016195 -0.249471 204 51 127
0.403366 0.154343 0.281929 204 51 127
-0.124485 0.007396 0.306547 204 51 127
-0.368668 0.341791 -0.091190 153 0 76
0.323408 -0.842243 -0.140625 153 76 0
-0.287691 0.652963 -0.393413 255 0 0
0.290800 -0.469084 -0.139951 153 76 0
-0.346226 -0.245118 -0.204610 76 0 153
-0.185372 0.429695 -0.302866 255 0 0
0.034136 -0.081880 -0.055731 204 51 127
0.229150 -0.081880 -0.211307 204 51 127
0.241518 -0.002629 -0.037426 204 51 127
-0.201323 0.180792 -0.327054 255 0 0
0.382031 0.345012 0.457575 76 0 153
0.294873 -0.578956 0.367376 76 0 153
0.207388 0.250775 -0.338605 255 0 0
0.323205 -0.111611 0.331451 76 0 153
0.376517 0.320305 -0.293221 76 0 153
0.409827 0.343224 0.242191 76 0 153
-0.007156 0.361413 -0.353140 255 0 0
0.062047 -0.028929 0.474606 204 51 127
-0.245641 0.204658 -0.338861 255 0 0
-0.296003 -0.831983 0.368636 153 0 76
-0.117221 0.457060 -0.365881 255 0 0
0.230021 0.240928 -0.276337 255 0 0
-0.064091 0.175266 -0.267108 255 0 0
-0.054726 0.014303 0.200668 204 51 127
-0.231944 -0.014393 -0.236713 255 0 0
0.037233 0.011094 0.268085 204 51 127
0.171645 0.355238 -0.292402 255 0 0
-0.011962 -0.000629 0.362722 204 51 127
-0.346226 -0.646530 0.330834 153 0 76
0.358025 0.340459 0.486742 76 0 153
0.281448 -0.277845 -0.227872 153 76 0
0.156385 -0.081880 0.405249 204 51 127
-0.346226 -0.440738 0.444172 153 0 76
0.044086 -0.081880 0.187738 204 51 127
0.173817 0.007527 0.278880 204 51 127
-0.189477 0.025129 -0.313630 255 0 0
0.105864 -0.003001 -0.301224 255 0 0
-0.296435 -0.331690 -0.137618 76 0 153
0.365682 0.168125 -0.072991 153 0 76
-0.122888 0.582619 -0.324358 255 0 0
-0.110688 -0.024826 0.472142 204 51 127
-0.311344 0.345032 -0.324869 153 0 76
-0.296003 -0.234028 -0.224214 76 0 153
0.321306 -0.742089 0.363201 76 0 153
0.323467 -0.081226 0.137851 204 51 127
0.300713 -0.081880 0.106207 204 51 127
0.320753 -0.368682 0.376618 76 0 153
0.273947 -0.081880 -0.012298 204 51 127
0.296793 -0.735284 0.304061 76 0 153
-0.386645 0.319900 -0.127897 153 0 76
0.034870 0.616317 -0.340577 255 0 0
-0.075995 -0.080395 -0.249363 204 51 127
0.252406 0.658388 -0.335007 255 0 0
-0.066314 0.003207 -0.113515 204 51 127
0.395185 0.345012 0.362448 76 0 153
-0.114824 0.013394 0.096497 204 51 127
0.126651 0.549622 -0.319721 255 0 0
0.006540 -0.081880 0.135549 204 51 127
-0.087918 0.441152 -0.304476 255 0 0
0.066508 0.013780 0.010695 204 51 127
0.080067 0.010970 0.270698 204 51 127
-0.088011 0.460816 -0.307240 255 0 0
0.273186 -0.418193 -0.129338 153 76 0
-0.346226 -0.500483 -0.094779 76 0 153
-0.349159 -0.009205 0.286957 204 51 127
-0.079636 0.041743 -0.248343 255 0 0
-0.041907 -0.081880 -0.229734 204 51 127
0.288301 -0.009643 0.053454 204 51 127
-0.400273 0.319900 -0.225776 153 0 76
-0.346226 -0.604601 -0.176971 76 0 153
0.000399 0.014225 0.020050 204 51 127
0.300843 -0.011532 -0.159468 204 51 127
0.252187 0.038832 -0.307103 255 0 0
-0.429596 0.185440 -0.059060 153 76 0
0.333813 0.038647 -0.066317 153 0 76
-0.228791 0.548144 -0.387135 255 0 0
-0.357781 0.319900 -0.236140 153 0 76
0.323408 -0.343447 -0.150131 153 76 0
0.201337 0.410857 -0.300219 255 0 0
-0.091929 0.105799 -0.257346 255 0 0
-0.346226 -0.472121 -0.099543 76 0 153
-0.296003 -0.193125 -0.220452 76 0 153
0.137592 -0.081880 0.455942 204 51 127
0.071300 -0.081880 0.125610 204 51 127
-0.133876 0.012441 0.178089 204 51 127
-0.206169 0.292802 -0.342796 255 0 0
0.288428 -0.204397 -0.181696 153 76 0
-0.346226 -0.566173 -0.116368 76 0 153
-0.266779 0.196935 -0.337775 255 0 0
-0.187627 0.105928 -0.257364 255 0 0
-0.178559 0.637818 -0.391285 255 0 0
-0.316879 -0.723364 -0.181785 76 0 153
-0.067203 -0.081880 0.254298 204 51 127
-0.117491 0.283633 -0.341507 255 0 0
0.289782 -0.081880 0.123645 204 51 127
0.218029 0.000897 0.160769 204 51 127
0.057112 0.454704 -0.365550 255 0 0
-0.092453 0.014513 0.072693 204 51 127
-0.279856 0.585351 -0.365301 255 0 0
-0.247176 0.371222 -0.353817 255 0 0
0.024976 0.374317 -0.354252 255 0 0
0.351548 -0.021645 -0.072998 153 0 76
-0.328729 -0.619654 -0.209241 76 0 153
0.130371 -0.081880 0.138576 204 51 127
-0.416658 0.319900 -0.033256 153 0 76
-0.035522 0.011006 -0.303192 255 0 0
0.173752 -0.081880 0.003884 204 51 127
0.252245 -0.004236 0.038081 204 51 127
-0.251913 -0.000770 0.174563 204 51 127
0.117296 0.371458 -0.353850 255 0 0
-0.272290 -0.003827 0.205407 204 51 127
-0.095212 0.014375 0.111628 204 51 127
0.021201 0.422104 -0.301799 255 0 0
0.323408 -0.270402 -0.219940 153 76 0
-0.240584 -0.003089 0.379937 204 51 127
-0.065356 -0.051641 -0.289073 204 51 127
-0.346226 -0.672392 0.358107 153 0 76
0.038558 -0.081880 0.397835 204 51 127
-0.209152 0.089210 -0.314183 255 0 0
-0.283453 -0.005501 -0.015790 204 51 127
-0.407006 0.345011 -0.241423 153 0 76
-0.172815 -0.021074 -0.284192 255 0 0
-0.268483 -0.058131 0.462736 204 51 127
-0.296003 -0.420506 0.406686 153 0 76
0.323408 -0.162661 0.330950 76 0 153
0.323408 -0.371777 -0.115067 153 76 0
-0.378873 0.319900 0.032749 153 0 76
0.299908 -0.679502 -0.235160 153 76 0
-0.377845 0.345011 -0.116871 153 0 76
0.031256 -0.081880 -0.126220 204 51 127
0.313935 -0.839456 -0.200742 153 76 0
0.323416 -0.034886 0.246687 204 51 127
-0.213819 0.495385 -0.312098 255 0 0
-0.315296 -0.193808 0.304415 153 0 76
-0.046467 -0.024084 -0.305611 255 0 0
-0.028403 0.318395 -0.346393 255 0 0
0.192891 -0.081880 -0.048255 204 51 127
-0.296003 -0.623817 -0.189041 76 0 153
-0.127641 0.400203 -0.298721 255 0 0
-0.320384 -0.044278 0.462736 204 51 127
0.277300 0.116152 -0.278313 255 0 0
-0.376318 0.229236 0.269524 76 0 153
0.389435 0.257733 0.286957 204 51 127
-0.346226 -0.666734 -0.191734 76 0 153
0.323408 -0.794263 0.320218 76 0 153
-0.013135 -0.081880 -0.079969 204 51 127
0.018301 0.120097 -0.318524 255 0 0
0.324758 0.339692 0.467699 76 0 153
-0.181782 0.598506 -0.385760 255 0 0
0.183788 0.288282 -0.282992 255 0 0
0.137988 -0.081880 0.419324 204 51 127
0.009843 -0.000556 -0.139854 204 51 127
-0.372707 0.319900 0.398418 153 0 76
0.323408 -0.669546 0.335672 76 0 153
0.273186 -0.780457 0.362562 76 0 153
0.136196 -0.081880 0.008583 204 51 127
-0.131434 -0.081880 -0.222673 204 51 127
-0.256935 -0.007312 0.409501 204 51 127
0.323408 -0.459523 -0.137317 153 76 0
-0.345963 -0.119963 0.385229 153 0 76
0.323408 -0.043339 0.263505 204 51 127
0.305532 -0.212577 -0.240356 153 76 0
-0.173996 0.010435 0.180594 204 51 127
-0.374773 0.345011 -0.170091 153 0 76
-0.157747 -0.079442 -0.252898 204 51 127
-0.320946 -0.011125 -0.108807 204 51 127
-0.244174 -0.019124 0.467525 204 51 127
-0.331364 -0.090698 -0.139218 204 51 127
0.005363 -0.081880 0.169278 204 51 127
-0.434487 0.300250 -0.054361 153 76 0
0.291299 -0.839837 0.343634 76 0 153
-0.336395 -0.081880 0.048904 204 51 127
0.041985 -0.014516 -0.237571 204 51 127
0.058392 -0.019839 -0.275400 204 51 127
-0.316110 -0.010400 -0.204973 204 51 127
-0.305557 0.697169 -0.357542 255 0 0
-0.221873 -0.006413 0.403208 204 51 127
0.107015 -0.062356 -0.280790 204 51 127
0.022296 0.479641 -0.309886 255 0 0
-0.346252 0.335936 0.462594 153 0 76
0.061367 0.010528 0.279977 204 51 127
0.306365 -0.453243 0.462238 76 0 153
0.297928 -0.410550 0.395541 76 0 153
-0.056393 0.016200 0.061520 204 51 127
-0.220951 0.003874 -0.045244 204 51 127
0.063012 0.050206 -0.308701 255 0 0
-0.346226 -0.152333 -0.176515 76 0 153
-0.387223 0.135751 -0.072990 153 76 0
-0.302657 -0.758717 0.306990 153 0 76
0.273186 -0.678082 0.354944 76 0 153
0.248653 -0.006140 -0.241614 255 0 0
0.239786 0.406416 -0.323847 255 0 0
0.278575 0.319900 -0.303901 76 0 153
-0.352175 0.011051 0.276834 204 51 127
0.319193 -0.552427 -0.160376 153 76 0
-0.296003 -0.129244 0.364695 153 0 76
0.229480 0.340352 -0.290311 255 0 0
-0.296003 -0.851659 0.375108 153 0 76
0.067284 0.012113 0.246691 204 51 127
-0.202283 -0.081880 -0.182990 204 51 127
-0.272003 -0.081880 0.011608 204 51 127
0.305231 -0.081880 -0.222753 204 51 127
0.278339 0.344040 -0.346800 76 0 153
-0.207587 0.523459 -0.375213 255 0 0
-0.346226 -0.789833 -0.224962 76 0 153
-0.296003 -0.802948 0.345295 153 0 76
0.273186 -0.151544 -0.211137 153 76 0
0.369198 0.319900 0.330673 76 0 153
-0.173992 0.010436 0.073414 204 51 127
0.291104 -0.319953 0.397385 76 0 153
0.105090 0.597726 -0.326481 255 0 0
0.358034 0.319900 0.410743 76 0 153
0.283416 -0.473225 0.404034 76 0 153
-0.019924 0.014939 0.187319 204 51 127
0.233585 0.560071 -0.321189 255 0 0
-0.054941 -0.056011 0.462736 204 51 127
0.241921 -0.038142 0.462736 204 51 127
0.102850 0.504107 -0.372493 255 0 0
0.058962 0.042769 -0.248487 255 0 0
-0.271293 0.534283 -0.330259 255 0 0
-0.296003 -0.257052 0.324012 153 0 76
-0.069903 0.146570 -0.322244 255 0 0
0.323422 -0.066965 0.233560 204 51 127
0.115692 0.480150 -0.309957 255 0 0
0.251961 -0.081880 0.207026 204 51 127
0.273186 -0.174031 0.356816 76 0 153
0.079234 0.042204 -0.248408 255 0 0
-0.084554 0.008115 -0.302786 255 0 0
0.323408 -0.063122 -0.213377 204 51 127
0.257164 0.679073 -0.337914 255 0 0
-0.161069 0.287292 -0.282853 255 0 0
-0.087394 0.013994 0.015198 204 51 127
-0.263116 0.566196 -0.386538 255 0 0
0.071231 0.528440 -0.316744 255 0 0
-0.296003 -0.349524 -0.124086 76 0 153
-0.130645 -0.069022 -0.273339 204 51 127
0.340986 0.319900 -0.282919 76 0 153
0.126337 0.011679 0.239469 204 51 127
0.025131 0.043152 -0.307710 255 0 0
-0.078513 -0.081880 0.193103 204 51 127
0.323408 -0.785614 -0.214730 153 76 0
0.054200 -0.005498 0.396818 204 51 127
0.306729 -0.013273 -0.228871 255 0 0
0.323408 -0.518854 -0.146615 153 76 0
0.290585 -0.194069 0.362986 76 0 153
-0.296003 -0.394278 0.404374 153 0 76
-0.372940 0.036433 0.286956 76 0 153
-0.346226 -0.086095 0.405401 153 0 76
0.183597 -0.081880 0.376136 204 51 127
0.016832 0.015847 0.054101 204 51 127
0.320374 -0.582825 -0.179622 153 76 0
-0.227049 0.369020 -0.294339 255 0 0
-0.372059 0.345011 -0.208643 153 0 76
-0.029867 0.454152 -0.371512 255 0 0
0.415465 0.322932 0.092648 76 0 153
-0.286860 -0.006012 -0.153428 204 51 127
0.230606 0.264860 -0.338869 255 0 0
0.399691 0.319900 -0.158398 76 0 153
-0.345660 -0.023068 -0.298379 255 0 0
0.111750 -0.081880 0.346478 204 51 127
-0.082895 0.171736 -0.325781 255 0 0
-0.340515 -0.831533 -0.147965 76 0 153
0.273186 -0.850049 -0.174836 153 76 0
-0.262936 -0.002424 -0.125365 204 51 127
0.169557 0.028349 -0.305630 255 0 0
-0.400161 0.345011 -0.054168 153 0 76
-0.328681 -0.465996 -0.139942 76 0 153
0.287146 0.722074 -0.343957 255 0 0
-0.237690 -0.081880 -0.084145 204 51 127
-0.081193 -0.081880 0.439615 204 51 127
-0.088423 -0.081880 0.313294 204 51 127
-0.400927 0.345011 0.354602 153 0 76
-0.057545 0.049336 -0.316881 255 0 0
-0.329911 -0.012470 0.338674 204 51 127
-0.082206 0.184186 -0.268362 255 0 0
0.097236 0.227368 -0.333600 255 0 0
-0.149310 0.043820 -0.307804 255 0 0
-0.319382 -0.015949 -0.247722 204 51 127
0.239729 -0.002362 0.325315 204 51 127
0.274266 -0.081880 0.354380 76 0 153
-0.224395 0.001720 0.346274 204 51 127
0.323408 -0.162561 -0.202605 153 76 0
0.198459 0.003830 0.024200 204 51 127
-0.346226 -0.039597 -0.022329 204 51 127
0.211759 -0.081880 0.046759 204 51 127
-0.369213 0.000794 0.261846 76 0 153
-0.307926 -0.268680 -0.231118 76 0 153
-0.399589 0.340754 0.474975 153 0 76
0.364161 0.046967 -0.072990 153 0 76
0.323408 -0.463804 0.442366 76 0 153
-0.094152 0.152370 -0.263891 255 0 0
-0.000282 0.237741 -0.335058 255 0 0
0.296595 0.049151 -0.297445 255 0 0
-0.293701 -0.007038 0.289107 204 51 127
-0.262729 0.373143 -0.341056 255 0 0
0.258255 0.345016 -0.310122 76 0 153
0.216644 0.106634 -0.257463 255 0 0
-0.208203 -0.065520 0.475707 204 51 127
-0.230150 0.682106 -0.350876 255 0 0
0.281857 -0.133857 0.319807 76 0 153
-0.334673 -0.572045 0.372225 153 0 76
-0.395443 0.319900 0.188357 153 0 76
-0.128646 -0.081880 0.024478 204 51 127
-0.243587 -0.048048 0.479450 204 51 127
0.372223 0.319900 0.229571 76 0 153
0.091935 0.013398 0.009697 204 51 127
0.377720 0.319900 0.025241 76 0 153
0.306424 -0.042961 0.462736 204 51 127
-0.346226 -0.499597 0.416208 153 0 76
0.282453 -0.452610 0.462192 76 0 153
-0.312807 -0.610572 -0.202875 76 0 153
0.172106 -0.012454 0.445502 204 51 127
-0.061752 0.337390 -0.349062 255 0 0
0.321654 -0.478091 0.403812 76 0 153
-0.026945 0.258809 -0.338019 255 0 0
-0.146656 0.011802 -0.017517 204 51 127
-0.107482 -0.081880 -0.018802 204 51 127
-0.346226 -0.752542 0.317677 153 0 76
0.058492 -0.000516 0.361947 204 51 127
0.278189 -0.008125 0.131489 204 51 127
0.209577 0.002165 0.197183 204 51 127
0.093375 0.012005 -0.026587 204 51 127
0.206941 0.058699 -0.250726 255 0 0
0.323408 -0.801383 -0.179696 153 76 0
-0.310292 -0.081880 0.247338 204 51 127
0.034978 -0.048428 0.462736 204 51 127
-0.225450 -0.035547 -0.296155 204 51 127
-0.075257 0.589199 -0.384452 255 0 0
-0.346226 -0.636584 0.373986 153 0 76
0.147104 0.010641 0.173145 204 51 127
0.091313 0.013429 0.040600 204 51 127
-0.326364 -0.081880 0.462210 204 51 127
-0.118114 0.343584 -0.290764 255 0 0
-0.357847 0.037078 0.261846 76 0 153
-0.427421 0.345011 -0.027455 153 0 76
-0.168439 0.010713 0.110473 204 51 127
0.368130 0.169200 0.286957 204 51 127
0.323408 -0.076353 -0.242093 204 51 127
-0.296003 -0.376371 -0.142400 76 0 153
0.008191 0.014540 0.195697 204 51 127
-0.360603 0.059030 -0.047869 153 76 0
0.176021 0.374626 -0.295127 255 0 0
0.099301 -0.081880 0.404331 204 51 127
-0.045808 -0.003605 0.383549 204 51 127
-0.290326 -0.038918 0.478261 204 51 127
-0.167688 0.378388 -0.295655 255 0 0
0.125209 0.004078 -0.107414 204 51 127
0.128721 -0.081880 0.205934 204 51 127
-0.201367 -0.081880 0.180744 204 51 127
-0.032365 0.484588 -0.310581 255 0 0
-0.368120 0.012561 -0.072985 153 76 0
0.181727 0.059331 -0.309984 255 0 0
0.310819 -0.833182 0.397273 76 0 153
0.282104 -0.565184 -0.108882 153 76 0
-0.223244 -0.075099 -0.263685 204 51 127
-0.383210 0.103706 0.286956 76 0 153
0.081853 0.000606 -0.131723 204 51 127
0.184371 -0.081880 0.172468 204 51 127
-0.263060 0.430931 -0.320732 255 0 0
-0.044315 0.011847 -0.029901 204 51 127
-0.296003 -0.296877 -0.217053 76 0 153
-0.213864 0.626238 -0.330489 255 0 0
-0.389205 0.232908 -0.072994 153 76 0
-0.403936 0.345011 -0.110155 153 0 76
0.302027 -0.072642 0.462736 204 51 127
-0.157137 -0.081880 0.000500 204 51 127
-0.007288 0.607490 -0.383309 255 0 0
0.087506 -0.033692 -0.296655 204 51 127
-0.216980 0.443112 -0.363921 255 0 0
-0.271850 -0.003761 -0.049809 204 51 127
0.021538 -0.013202 -0.228372 204 51 127
-0.341975 0.319900 -0.268165 153 0 76
-0.115528 0.156275 -0.332061 255 0 0
0.262216 -0.078679 0.466380 204 51 127
0.090037 0.291664 -0.342636 255 0 0
0.323408 -0.647735 -0.195420 153 76 0
0.301541 -0.827782 -0.209102 153 76 0
-0.346226 -0.204756 0.320848 153 0 76
0.150821 0.500939 -0.372048 255 0 0
-0.091810 0.012429 0.240038 204 51 127
-0.122157 -0.003373 0.381926 204 51 127
0.123603 -0.081880 0.327008 204 51 127
-0.028123 0.011350 0.262682 204 51 127
0.099274 -0.081880 0.378710 204 51 127
0.379634 0.345012 -0.202582 76 0 153
-0.276947 0.643767 -0.332952 255 0 0
-0.162300 -0.081880 0.445411 204 51 127
0.249451 -0.081880 0.242418 204 51 127
-0.144559 0.001204 0.349890 204 51 127
-0.044906 -0.005097 -0.171638 204 51 127
0.304698 -0.140040 -0.226867 153 76 0
0.363862 0.345012 0.350114 76 0 153
0.360710 0.319900 0.259610 204 51 127
-0.296003 -0.586726 -0.150589 76 0 153
-0.050045 0.270867 -0.339713 255 0 0
-0.340744 -0.715209 -0.240193 76 0 153
0.273186 -0.804001 0.356436 76 0 153
-0.049180 -0.081880 -0.102165 204 51 127
-0.068002 0.345441 -0.291025 255 0 0
-0.092652 0.010310 -0.062169 204 51 127
-0.330742 -0.297301 -0.219140 76 0 153
-0.346226 -0.057931 -0.236342 204 51 127
0.175116 0.101323 -0.324338 255 0 0
0.265299 0.632311 -0.390511 255 0 0
-0.207269 -0.081880 0.052023 204 51 127
-0.346226 -0.045587 -0.290718 204 51 127
-0.182072 0.429386 -0.362095 255 0 0
-0.121114 -0.064978 0.475928 204 51 127
0.258553 -0.005182 0.213714 204 51 127
0.365977 0.319900 -0.177290 76 0 153
-0.020497 -0.013096 -0.227634 204 51 127
-0.379633 0.337572 0.095161 153 0 76
0.179445 0.437290 -0.303934 255 0 0
-0.076661 0.402499 -0.362169 255 0 0
-0.114887 -0.081880 0.353094 204 51 127
-0.055296 0.408026 -0.299821 255 0 0
0.323408 -0.078812 -0.156036 204 51 127
-0.296553 -0.612789 0.339575 153 0 76
0.024754 -0.081880 0.227515 204 51 127
0.247409 0.521517 -0.357372 255 0 0
0.291910 -0.192117 0.304572 76 0 153
-0.336232 0.789562 -0.405080 255 0 0
-0.142497 -0.013102 -0.227678 204 51 127
0.381458 0.319900 -0.027576 76 0 153
-0.126031 -0.012394 0.445077 204 51 127
-0.346226 -0.615759 0.357415 153 0 76
-0.319527 -0.081880 0.159233 204 51 127
-0.376503 0.336319 0.220199 153 0 76
0.241936 0.185244 -0.268511 255 0 0
0.265477 -0.006227 -0.132404 204 51 127
0.261975 0.180362 -0.285016 255 0 0
-0.067661 -0.005270 0.395210 204 51 127
-0.041114 0.212492 -0.272340 255 0 0
0.175199 -0.081580 -0.242971 204 51 127
-0.324840 -0.282737 0.318157 153 0 76
-0.282750 -0.081880 0.205241 204 51 127
-0.342751 0.342733 -0.333502 153 0 76
0.090083 -0.081880 0.083556 204 51 127
0.123242 0.414322 -0.300706 255 0 0
-0.118827 0.493613 -0.371018 255 0 0
-0.207513 -0.027016 -0.297963 255 0 0
0.065982 -0.081880 0.156100 204 51 127
0.273186 -0.234484 0.349925 76 0 153
0.071355 0.014427 0.043315 204 51 127
-0.131119 0.012579 0.236588 204 51 127
0.017608 -0.035162 0.462736 204 51 127
-0.005122 -0.081880 0.305152 204 51 127
0.177648 -0.044902 0.479206 204 51 127
-0.296003 -0.639544 0.344642 153 0 76
-0.257845 0.641404 -0.391789 255 0 0
-0.077942 0.006850 -0.088009 204 51 127
0.131193 -0.044626 0.462736 204 51 127
-0.093585 -0.081880 0.097974 204 51 127
0.045359 0.028113 -0.306599 255 0 0
-0.321325 -0.590742 0.416558 153 0 76
0.323408 -0.015580 0.401171 204 51 127
0.273186 -0.717955 0.320576 76 0 153
-0.329068 -0.081880 -0.024381 204 51 127
0.307463 -0.171872 -0.177852 153 76 0
0.086500 0.345829 -0.291080 255 0 0
-0.081148 -0.004847 -0.169888 204 51 127
0.020356 0.443172 -0.363929 255 0 0
-0.312729 -0.836901 0.399981 153 0 76
-0.101271 -0.081880 -0.199065 204 51 127
0.326895 0.001454 -0.065251 153 0 76
0.233072 -0.001359 0.086443 204 51 127
-0.298034 -0.752289 -0.238190 76 0 153
0.278795 -0.081880 0.455980 204 51 127
-0.193384 0.008009 0.299306 204 51 127
-0.331283 0.774075 -0.368268 255 0 0
0.370979 0.345012 0.068970 76 0 153
0.184159 0.005977 0.220891 204 51 127
-0.327638 -0.660944 0.314389 153 0 76
-0.394845 0.319900 0.249475 153 0 76
-0.310787 -0.165443 -0.235000 76 0 153
-0.304547 -0.110084 0.390989 153 0 76
0.152028 -0.081880 0.297260 204 51 127
0.083558 -0.029927 0.462736 204 51 127
0.273186 -0.772007 -0.195827 153 76 0
0.323431 -0.040191 0.213745 204 51 127
0.315403 -0.099470 0.398120 76 0 153
-0.276279 -0.004425 0.039165 204 51 127
0.167154 0.293669 -0.342918 255 0 0
0.240246 0.359999 -0.333152 255 0 0
0.323408 -0.056200 -0.124083 204 51 127
-0.346226 -0.188032 0.345283 153 0 76
-0.296003 -0.446085 -0.131775 76 0 153
0.316751 -0.851960 0.385077 76 0 153
0.401529 0.345012 0.044911 76 0 153
-0.011016 -0.081880 0.383754 204 51 127
-0.103039 0.011896 -0.028869 204 51 127
0.243742 0.319900 -0.317045 255 0 0
-0.094480 0.351568 -0.291886 255 0 0
-0.366067 0.345011 -0.232882 153 0 76
0.408957 0.334547 -0.078457 76 0 153
-0.296829 0.128733 -0.277838 255 0 0
0.067247 0.077175 -0.253323 255 0 0
-0.120995 0.315404 -0.354425 255 0 0
0.315724 -0.594550 0.354573 76 0 153
0.038969 -0.081880 0.111361 204 51 127
0.152922 0.166266 -0.265844 255 0 0
-0.304407 0.345036 -0.341505 153 0 76
-0.346226 -0.540366 -0.127910 76 0 153
-0.067866 -0.081880 -0.213741 204 51 127
-0.328673 -0.392934 -0.155010 76 0 153
-0.094452 0.005786 0.317816 204 51 127
-0.146444 -0.022250 0.470151 204 51 127
0.303746 -0.011959 0.017834 204 51 127
-0.346226 -0.613893 0.396218 153 0 76
0.145526 -0.030309 0.462736 204 51 127
-0.346312 -0.028638 -0.058212 153 76 0
-0.296003 -0.726476 0.321130 153 0 76
0.392530 0.345012 0.293811 76 0 153
0.034925 0.016248 0.090072 204 51 127
-0.181499 -0.022512 0.462736 204 51 127
0.273186 -0.294178 -0.179274 153 76 0
0.011928 0.174601 -0.326184 255 0 0
-0.198833 0.394791 -0.297961 255 0 0
0.229114 0.413877 -0.359812 255 0 0
-0.078211 0.444468 -0.364111 255 0 0
0.061728 0.216489 -0.272902 255 0 0
-0.224116 0.032098 -0.306156 255 0 0
0.037955 0.014012 0.206805 204 51 127
-0.008035 -0.081880 -0.022351 204 51 127
0.321359 -0.409078 -0.149001 153 76 0
-0.296003 -0.731346 0.339761 153 0 76
0.371538 0.319900 0.444576 76 0 153
-0.122725 0.211749 -0.339857 255 0 0
0.224110 0.492629 -0.311711 255 0 0
-0.330731 -0.460984 0.462641 153 0 76
0.342541 0.096709 -0.058020 153 0 76
-0.346226 -0.582261 -0.141783 76 0 153
0.047359 0.007350 0.306880 204 51 127
-0.302520 0.345018 -0.298351 153 0 76
0.273186 -0.539786 0.430651 76 0 153
0.036177 -0.081880 0.082905 204 51 127
0.301231 -0.294178 0.323357 76 0 153
-0.346226 -0.074960 0.343856 204 51 127
-0.346226 -0.066592 0.160865 204 51 127
-0.116027 0.585686 -0.392411 255 0 0
0.251530 0.551733 -0.363757 255 0 0
0.255153 0.324456 -0.347169 76 0 153
-0.346226 -0.838245 0.369239 153 0 76
-0.220787 0.003899 0.286304 204 51 127
0.236228 0.567460 -0.381397 255 0 0
-0.338449 -0.598750 -0.134698 76 0 153
-0.296003 -0.763730 0.344008 153 0 76
0.303532 -0.537781 -0.095124 153 76 0
-0.344788 0.809113 -0.366150 255 0 0
-0.338830 -0.081880 0.444927 204 51 127
-0.050813 0.561569 -0.382011 255 0 0
-0.296003 -0.846898 -0.148509 76 0 153
-0.125900 -0.081880 0.378976 204 51 127
-0.126464 -0.081880 0.145587 204 51 127
-0.313732 -0.839651 -0.141996 76 0 153
-0.100320 0.464253 -0.366892 255 0 0
0.123550 -0.081880 0.043518 204 51 127
0.021350 -0.045993 0.479290 204 51 127
-0.401642 0.345011 -0.162389 153 0 76
-0.105555 -0.081880 0.056059 204 51 127
-0.346226 -0.040106 0.241496 204 51 127
-0.153074 0.499871 -0.312729 255 0 0
0.130753 -0.081880 -0.057163 204 51 127
-0.346226 -0.476740 0.440755 153 0 76
-0.280225 0.672823 -0.337036 255 0 0
0.323408 -0.317268 0.366984 76 0 153
