ply
format ascii 1.0
element vertex 1271
property float x
property float y
property float z
property uchar red
property uchar green
property uchar blue
end_header
-0.380995 -0.399307 0.418521 76 0 153
0.315663 -0.552118 -0.169712 153 0 76
-0.326455 -0.410171 -0.248989 153 0 76
-0.376026 0.394323 -0.318377 153 76 0
-0.345883 -0.661693 0.523237 76 0 153
0.240747 0.753542 -0.280596 255 0 0
-0.330658 -0.557144 -0.236131 153 0 76
-0.326455 -0.027745 0.477518 255 0 0
0.318385 -0.051492 0.007400 0 255 0
0.301845 0.646479 -0.294626 76 0 153
0.301845 -0.534555 -0.293496 76 153 0
0.320222 -0.106252 -0.216092 76 153 0
0.026981 0.075914 0.322646 0 127 127
-0.326455 0.314325 -0.249552 153 76 0
-0.344038 0.304728 -0.312404 153 76 0
0.370260 0.080998 -0.297488 76 0 153
-0.060252 0.000202 -0.256936 127 127 0
0.024490 0.572025 -0.294352 204 51 127
0.145893 0.075914 -0.030238 0 127 127
-0.202577 0.075914 0.403971 0 127 127
0.126459 -0.016872 -0.290096 127 127 0
-0.293015 0.020878 -0.256936 127 127 0
-0.373577 0.042123 -0.076069 0 127 127
-0.171358 0.075914 0.299000 0 127 127
-0.326455 -0.297745 -0.303255 153 0 76
-0.203799 0.740895 -0.275875 255 0 0
-0.229242 0.232920 -0.242010 0 0 255
-0.250833 0.035772 0.103426 0 127 127
-0.218063 0.035772 -0.098372 0 127 127
0.304880 0.075914 0.414645 0 127 127
0.364857 -0.011603 -0.160765 0 255 0
-0.326455 -0.291511 0.454826 76 0 153
0.355918 -0.726474 0.505586 0 127 127
0.130856 0.044037 0.502619 127 0 127
-0.091098 0.075914 0.076682 0 127 127
0.121938 0.272533 -0.244650 0 0 255
-0.058997 0.052269 0.502352 127 0 127
-0.249774 0.293964 -0.290713 0 0 255
0.072961 0.035772 0.403331 0 127 127
-0.387996 -0.620974 0.418521 76 0 153
-0.254814 0.075914 0.179159 0 127 127
0.147361 0.758718 -0.312046 255 0 0
-0.143135 -0.019966 0.461410 127 0 127
0.048787 0.075914 -0.049885 0 127 127
-0.307034 0.259177 -0.296018 0 0 255
0.331267 -0.707841 0.523237 0 127 127
0.102575 0.075914 0.083404 0 127 127
0.359439 -0.548142 0.002916 153 0 76
-0.299500 0.035772 0.249202 255 0 0
0.301845 -0.435964 0.476001 0 127 127
0.016953 0.035772 0.155743 0 127 127
0.112126 0.035772 0.184312 0 127 127
0.058517 0.035772 0.352422 0 127 127
-0.060895 0.035772 -0.063995 0 127 127
0.361161 -0.357335 -0.227251 76 153 0
-0.069234 0.075914 -0.111555 0 127 127
0.113886 0.035772 0.118538 0 127 127
0.038548 0.075914 0.080059 0 127 127
0.301845 -0.322825 0.421467 0 127 127
0.185320 0.253932 -0.295668 0 0 255
0.306301 0.035772 0.308380 0 255 0
0.371656 -0.483722 0.506811 0 127 127
0.352048 0.054519 0.129951 0 127 127
0.364857 0.015124 0.324641 0 255 0
-0.318273 0.035772 0.043079 255 0 0
0.343626 0.035772 0.519758 0 255 0
-0.260315 0.187480 -0.273755 0 0 255
0.359439 -0.484702 -0.007321 153 0 76
-0.390001 -0.140888 0.418521 76 0 153
0.354051 -0.012315 0.418521 0 255 0
0.348397 -0.412200 0.418521 0 127 127
-0.197781 0.075914 0.226548 0 127 127
-0.393856 -0.465204 -0.319309 153 0 76
0.348232 -0.673249 0.523237 0 127 127
-0.158963 0.296284 -0.275969 153 0 76
-0.196070 0.035772 -0.096236 0 127 127
0.179686 -0.502674 0.042413 76 0 153
-0.152309 0.031030 -0.290096 127 127 0
-0.330086 0.814585 -0.304279 153 76 0
0.371656 -0.111026 0.428304 0 127 127
0.246340 0.075914 -0.025223 0 127 127
0.131411 0.075914 0.452733 0 127 127
-0.095944 0.772198 -0.277961 255 0 0
0.301845 -0.045111 0.446866 0 255 0
0.055592 0.075940 0.471604 0 127 127
-0.259119 0.075914 -0.134654 0 127 127
-0.014001 0.218957 -0.293337 0 0 255
-0.030395 0.075914 0.343182 0 127 127
-0.179096 0.075914 0.426496 0 127 127
0.214934 -0.511767 0.042413 76 0 153
-0.326455 0.346140 -0.288277 153 76 0
-0.007152 -0.532047 0.105385 76 0 153
0.314062 -0.537601 -0.204909 153 0 76
0.301845 0.781169 -0.287494 76 0 153
-0.373999 0.059586 -0.296061 127 127 0
0.325911 0.242271 -0.308240 76 0 153
-0.326455 -0.618928 0.444336 76 0 153
-0.111394 -0.498015 0.079120 76 0 153
0.301845 -0.293581 0.438751 0 127 127
0.321362 0.059072 -0.010955 0 127 127
-0.198696 0.035000 -0.263197 127 127 0
-0.380128 -0.428161 -0.317662 153 0 76
-0.137637 0.331683 -0.278329 153 0 76
-0.065931 0.791948 -0.314261 255 0 0
-0.029893 0.075914 -0.052554 0 127 127
0.301845 0.264613 -0.300956 76 0 153
-0.355908 -0.051492 0.056091 255 0 0
-0.138860 0.035772 0.067286 0 127 127
-0.124795 0.265456 -0.296437 0 0 255
-0.289371 0.008056 -0.290096 127 127 0
0.186102 0.011442 0.461410 127 0 127
0.063298 0.513376 -0.265954 204 51 127
0.371656 -0.337071 -0.253040 76 153 0
-0.326455 -0.607045 -0.290699 153 0 76
-0.077270 0.035772 -0.142627 0 127 127
0.349235 0.725659 -0.253202 76 0 153
0.156850 0.262620 -0.243990 0 0 255
0.301845 -0.531090 0.465176 0 127 127
-0.123255 0.035772 0.002276 0 127 127
-0.005652 0.035772 -0.214213 0 127 127
-0.368914 -0.726474 -0.281806 153 0 76
-0.150414 -0.000185 -0.256936 127 127 0
-0.326455 -0.326821 0.448656 76 0 153
-0.222684 0.035772 0.034540 0 127 127
-0.270649 0.035772 0.303923 255 0 0
-0.269099 0.035772 -0.184479 0 127 127
0.301845 -0.407092 -0.315883 76 153 0
0.351852 -0.712994 0.523237 0 127 127
-0.078765 0.035772 0.300252 0 127 127
-0.238698 0.021294 0.512022 127 0 127
-0.291868 -0.049236 0.461410 127 0 127
0.216807 0.697455 -0.272979 255 0 0
-0.034646 0.075914 0.460264 0 127 127
0.117264 -0.025650 0.461410 127 0 127
-0.396266 -0.275273 0.440915 76 0 153
-0.348239 0.179758 -0.217667 153 76 0
0.371656 0.014258 0.507920 0 255 0
0.301845 0.714859 -0.277333 255 0 0
-0.326455 -0.613838 -0.258106 153 0 76
-0.067722 0.709326 -0.308753 255 0 0
-0.346254 -0.325629 0.418521 76 0 153
-0.396266 -0.409103 0.443846 76 0 153
0.314062 -0.484218 -0.145847 153 0 76
-0.326455 -0.229994 0.476903 76 0 153
-0.387175 -0.091530 0.523237 76 0 153
0.310754 0.030180 0.058477 0 255 0
-0.373283 -0.290010 -0.311522 153 0 76
0.290389 0.650928 -0.270273 255 0 0
0.301845 -0.088641 0.478697 0 127 127
0.131553 -0.003878 -0.256936 127 127 0
-0.382193 -0.552118 -0.252763 153 0 76
-0.358013 -0.552118 0.011782 153 76 0
-0.396266 -0.095897 0.497607 76 0 153
0.158457 0.075914 -0.117820 0 127 127
-0.396266 -0.130639 0.512250 76 0 153
0.021282 0.035772 0.291855 0 127 127
-0.243533 0.745009 -0.276149 255 0 0
0.020341 0.800852 -0.279872 255 0 0
0.296952 0.035772 0.091659 0 255 0
-0.326455 0.343819 -0.261068 153 76 0
0.314062 -0.488893 0.378501 153 0 76
-0.343027 -0.362426 0.523237 76 0 153
0.164159 -0.032473 0.461410 127 0 127
0.352777 0.036320 -0.037513 0 255 0
0.371656 -0.218009 0.476538 0 127 127
-0.130464 0.771504 -0.277915 255 0 0
0.353714 0.035772 0.104380 0 255 0
-0.334847 -0.041813 -0.006281 255 0 0
0.208013 -0.026070 0.461410 127 0 127
0.371656 -0.708921 0.475934 0 127 127
0.348903 -0.034179 -0.212888 0 255 0
-0.396266 -0.517827 -0.269323 153 0 76
0.228606 0.075914 0.020001 0 127 127
-0.096135 0.365018 -0.280552 153 0 76
0.371656 -0.058270 -0.259606 76 153 0
0.364857 -0.048948 0.082097 0 255 0
0.145459 -0.052264 -0.287574 127 127 0
0.301845 -0.165528 0.419553 0 127 127
-0.331178 -0.610033 0.418521 76 0 153
-0.358086 -0.552118 0.159145 153 76 0
0.327772 -0.351322 0.418521 0 127 127
0.338319 -0.020833 -0.235959 0 255 0
0.301845 -0.674489 -0.299145 76 153 0
-0.055097 0.480688 -0.288263 153 0 76
0.230954 0.293964 -0.290499 0 0 255
0.371656 0.868501 -0.319629 76 0 153
-0.396266 -0.016592 -0.233781 127 127 0
-0.329427 -0.255499 -0.222725 153 0 76
0.304717 0.031609 -0.209964 0 255 0
0.292415 0.075914 0.211080 0 127 127
-0.351542 0.075527 -0.017068 0 127 127
0.359439 -0.547921 0.216564 153 0 76
0.316806 -0.308221 -0.312332 76 153 0
0.186064 0.035772 -0.010477 0 127 127
-0.326455 0.401715 -0.278384 153 76 0
-0.310793 0.035772 -0.080422 255 0 0
0.315480 -0.164599 -0.305949 76 153 0
-0.027946 0.031662 -0.256936 127 127 0
0.363366 0.855916 -0.279701 76 0 153
0.359439 -0.531340 0.146588 153 0 76
0.018472 0.075914 0.387490 0 127 127
-0.068875 0.035772 -0.215621 0 127 127
-0.282567 0.035772 0.147571 0 127 127
0.279513 0.283948 -0.245411 0 0 255
-0.106069 0.075914 0.250708 0 127 127
0.236596 0.075914 0.286383 0 127 127
0.106016 0.394096 -0.275820 204 51 127
0.026765 -0.045721 0.512022 127 0 127
-0.073771 -0.532920 0.062601 76 0 153
0.371358 0.761305 -0.255578 76 0 153
0.314062 -0.535542 0.079614 153 0 76
-0.335207 0.075914 0.084193 0 127 127
-0.366922 0.066505 0.425421 0 127 127
-0.326455 0.608156 -0.331580 153 76 0
0.301845 -0.235794 0.421010 0 127 127
-0.334847 0.013752 0.207731 255 0 0
-0.309677 0.067961 -0.268015 127 127 0
-0.050217 0.507518 -0.265564 153 0 76
-0.343899 0.867049 -0.280719 153 76 0
-0.385740 -0.492529 0.210145 153 76 0
0.301845 -0.609773 0.493460 0 127 127
-0.085824 0.056264 -0.274992 127 127 0
0.301845 -0.338425 0.511941 0 127 127
-0.150994 0.035772 -0.028737 0 127 127
-0.131269 0.278311 -0.245036 0 0 255
0.262539 0.035772 0.112042 0 127 127
-0.287264 0.035772 -0.020474 0 127 127
-0.338617 -0.527070 0.145590 153 76 0
-0.304646 -0.011015 -0.290096 127 127 0
-0.050287 0.035000 -0.288193 127 127 0
-0.396266 0.068793 -0.250229 153 76 0
-0.388951 -0.031088 0.387680 255 0 0
0.188066 -0.511169 0.105385 76 0 153
-0.396266 0.649654 -0.317512 153 76 0
-0.367602 -0.481798 0.418521 153 76 0
-0.161351 -0.498015 0.050211 76 0 153
0.307715 0.035772 -0.157148 0 255 0
0.359369 0.404770 -0.319073 76 0 153
-0.339785 -0.681431 -0.241655 153 0 76
0.005412 0.745062 -0.311135 255 0 0
-0.373018 0.053733 0.215058 0 127 127
0.089493 0.790949 -0.314195 255 0 0
0.301845 -0.153045 -0.221429 76 153 0
-0.396266 0.342164 -0.247056 153 76 0
0.323978 -0.461519 0.523237 0 127 127
-0.155788 0.035772 0.222975 0 127 127
0.311558 -0.578697 -0.237089 76 153 0
-0.326455 -0.291289 -0.236524 153 0 76
-0.326455 -0.066207 -0.228213 153 0 76
-0.109516 0.075914 0.424295 0 127 127
0.041497 0.424600 -0.260036 204 51 127
0.301845 -0.705477 0.455544 0 127 127
0.311780 -0.426553 -0.317591 76 153 0
-0.368285 0.634557 -0.334392 153 76 0
0.321362 0.054757 -0.146658 0 127 127
0.130498 0.035772 0.037461 0 127 127
-0.249070 0.075914 0.082491 0 127 127
0.130364 -0.520133 0.042413 76 0 153
0.098509 0.035772 0.395843 0 127 127
0.247630 0.232924 -0.294268 0 0 255
0.367878 -0.119401 0.523237 0 127 127
-0.087701 -0.051492 0.494020 127 0 127
-0.396266 -0.475475 0.477164 76 0 153
-0.377003 0.035772 0.012810 255 0 0
-0.057601 0.075914 0.154307 0 127 127
-0.087202 0.075914 -0.099107 0 127 127
0.005342 0.035772 -0.243179 0 127 127
-0.338617 -0.498391 0.137756 153 76 0
-0.207830 0.035772 0.245872 0 127 127
0.032359 0.015015 -0.256936 127 127 0
0.303852 0.035772 -0.039327 0 255 0
0.338004 0.072916 0.007125 0 127 127
0.062125 0.075914 -0.244065 0 127 127
0.364857 0.004127 0.079344 0 255 0
0.257130 0.075914 -0.217026 0 127 127
0.301845 -0.111673 0.434393 0 127 127
0.083925 0.037842 0.502619 127 0 127
0.081092 0.075914 0.329992 0 127 127
-0.307184 -0.007883 -0.256936 0 127 127
0.371656 -0.223912 -0.293621 76 153 0
0.258759 0.035772 -0.167215 0 255 0
0.369873 0.373286 -0.229710 76 0 153
-0.389292 -0.561513 0.491538 76 0 153
0.111965 0.011334 0.512022 127 0 127
0.326698 0.605935 -0.332484 76 0 153
-0.096319 0.633970 -0.273994 153 0 76
-0.385740 -0.536574 -0.168578 153 76 0
-0.150646 0.649970 -0.284638 255 0 0
-0.097987 0.035772 -0.149891 0 127 127
0.316269 -0.187931 -0.219722 76 153 0
0.310754 0.020443 0.261259 0 255 0
-0.338617 -0.531490 0.255791 153 76 0
-0.385740 -0.482445 0.094923 153 76 0
0.058225 0.035772 -0.052376 0 127 127
-0.396266 -0.256398 -0.267222 153 0 76
0.314062 -0.498643 0.314531 153 0 76
0.244944 0.714406 -0.274109 255 0 0
0.364857 0.022945 0.055895 0 255 0
0.073036 -0.051492 0.499812 127 0 127
-0.034312 0.733165 -0.275359 255 0 0
0.044812 0.035772 0.014087 0 127 127
-0.118873 0.035772 -0.182854 0 127 127
-0.388951 -0.021198 -0.063586 255 0 0
0.359208 -0.653584 0.418521 0 127 127
0.364857 0.034970 0.364113 0 255 0
0.314062 -0.537582 0.134269 153 0 76
-0.281320 0.651990 -0.304931 255 0 0
-0.339371 0.241389 -0.308181 153 76 0
-0.085955 0.075914 0.407545 0 127 127
-0.131156 0.035772 -0.217886 0 127 127
-0.388951 -0.048519 0.073983 255 0 0
0.094928 0.075914 -0.217912 0 127 127
-0.334847 0.024518 0.299643 255 0 0
0.265617 0.664290 -0.305751 255 0 0
0.079910 -0.015395 0.512022 127 0 127
-0.321582 0.035772 0.003014 255 0 0
0.359439 -0.538994 0.351501 153 0 76
-0.396266 -0.173630 0.473364 76 0 153
0.330103 -0.423545 0.523237 0 127 127
-0.363615 0.058311 -0.239329 153 76 0
0.359439 -0.496890 0.337127 153 0 76
-0.003921 0.035772 0.399288 0 127 127
-0.348211 0.076007 -0.197163 0 127 127
-0.130675 0.572022 -0.274740 153 0 76
0.062061 0.062521 0.498750 0 127 127
0.280884 0.188532 -0.255539 0 0 255
-0.326765 0.779796 -0.279781 153 76 0
-0.235957 -0.532920 0.082717 76 0 153
0.316034 -0.552118 0.301000 153 0 76
-0.279212 0.075914 -0.100649 0 127 127
0.324301 -0.051492 0.039244 0 255 0
0.301845 0.154723 -0.243684 76 0 153
0.150167 0.202223 -0.239963 0 0 255
0.320800 -0.174621 0.523237 0 127 127
0.199454 0.035772 0.033832 0 127 127
-0.232618 0.211978 -0.240613 0 0 255
-0.269022 -0.511642 0.042413 76 0 153
0.005764 0.517105 -0.266219 204 51 127
0.028913 0.072142 -0.262731 127 127 0
-0.165541 0.075914 -0.200801 0 127 127
0.371656 -0.394215 0.505756 0 127 127
-0.273691 0.075914 0.030006 0 127 127
0.371656 -0.348981 -0.284226 76 153 0
-0.393575 0.265174 -0.309767 153 76 0
0.207919 0.075914 -0.199350 0 127 127
-0.396266 0.559834 -0.275172 153 76 0
-0.341302 -0.235326 -0.309092 153 0 76
0.138451 0.072139 -0.262737 127 127 0
0.331082 -0.482307 0.310982 153 0 76
-0.091899 0.278815 -0.274805 0 0 255
-0.380983 -0.500177 -0.320863 153 0 76
0.371656 -0.597415 -0.257704 76 153 0
0.259296 -0.498015 0.062868 76 0 153
-0.157243 0.631037 -0.298286 153 0 76
0.301845 -0.540992 0.434697 0 127 127
0.301845 -0.304802 -0.234397 76 153 0
-0.052919 0.075914 -0.161845 0 127 127
-0.157685 0.035772 -0.170528 0 127 127
-0.261401 0.193602 -0.239388 0 0 255
0.371656 0.057063 -0.235518 76 0 153
0.316803 0.661116 -0.248899 76 0 153
0.041490 0.511995 -0.290350 204 51 127
0.356792 -0.316401 0.418521 0 127 127
-0.356139 -0.552118 0.368706 153 76 0
0.265477 0.242993 -0.294939 0 0 255
0.371656 -0.434584 -0.233119 76 153 0
-0.237627 0.035772 -0.197769 0 127 127
-0.142176 0.075914 0.101501 0 127 127
-0.091457 0.075914 0.179651 0 127 127
-0.385740 -0.498318 0.386637 153 76 0
-0.388951 -0.041186 0.171051 255 0 0
0.371656 -0.580080 0.438327 0 127 127
-0.373870 0.267273 -0.309907 153 76 0
-0.338617 -0.496256 0.313816 153 76 0
-0.358479 -0.051492 -0.011482 255 0 0
0.301845 0.328797 -0.268248 76 0 153
-0.124100 0.798044 -0.290266 255 0 0
-0.372161 0.057104 0.254862 0 127 127
0.146513 0.075914 0.314084 0 127 127
-0.031339 0.548428 -0.292779 153 0 76
0.371656 -0.622628 0.514497 0 127 127
-0.396266 0.831741 -0.325811 153 76 0
-0.098868 0.035772 -0.189387 0 127 127
0.333806 0.374871 -0.317080 76 0 153
0.338244 0.300804 -0.224878 76 0 153
0.097836 0.068295 -0.267683 127 127 0
-0.396266 -0.048695 -0.243827 127 127 0
-0.045234 0.350097 -0.271437 153 0 76
0.339697 0.490313 -0.324776 76 0 153
0.371656 -0.269990 -0.288507 76 153 0
-0.034888 0.075914 0.091855 0 127 127
0.031600 0.075914 -0.038214 0 127 127
-0.346010 -0.726474 0.456696 76 0 153
0.371656 -0.046129 0.508581 0 255 0
-0.388951 -0.031635 0.259809 255 0 0
0.371656 -0.262124 0.448607 0 127 127
-0.235242 0.035772 -0.151067 0 127 127
0.359439 -0.502853 0.375768 153 0 76
0.337252 -0.552118 -0.001708 153 0 76
0.343016 -0.051492 0.243788 0 255 0
0.301845 -0.707372 -0.266536 76 153 0
-0.346438 -0.659603 -0.327949 153 0 76
-0.388951 0.002996 0.061260 255 0 0
-0.384801 -0.482307 0.061879 153 76 0
0.301845 -0.667833 -0.275701 76 153 0
0.040146 0.046233 0.502619 127 0 127
-0.336616 0.035772 0.064565 255 0 0
-0.191907 0.649653 -0.289396 255 0 0
0.102362 0.368686 -0.280796 204 51 127
-0.329820 0.764622 -0.256506 153 76 0
0.269923 0.075914 0.319064 0 127 127
-0.138837 0.075914 -0.089832 0 127 127
0.344738 -0.051492 0.198256 0 255 0
-0.338617 -0.533799 0.063732 153 76 0
-0.032954 0.496618 -0.264837 153 0 76
-0.396266 -0.569266 -0.276369 153 0 76
0.310754 -0.020395 0.293614 0 255 0
0.371656 0.100727 -0.283273 76 0 153
0.242650 0.207693 -0.292586 0 0 255
0.044860 0.075914 -0.175964 0 127 127
0.335236 -0.482307 0.148731 153 0 76
0.311353 -0.532920 0.060477 153 0 76
0.371656 -0.219031 -0.249654 76 153 0
-0.334847 -0.027211 0.402493 255 0 0
0.320063 -0.123641 -0.304128 76 153 0
0.034045 -0.498834 0.105385 76 0 153
0.000950 -0.020906 0.512022 127 0 127
0.359439 -0.529600 -0.102193 153 0 76
-0.343896 -0.550902 -0.323118 153 0 76
-0.338617 -0.541806 0.357208 153 76 0
-0.292563 -0.049088 0.512022 127 0 127
-0.168246 -0.052264 -0.272270 127 127 0
-0.257665 0.035772 0.200816 0 127 127
-0.396266 -0.498587 -0.276358 153 0 76
0.315615 -0.352312 -0.227028 76 153 0
0.352554 0.051652 0.309657 0 255 0
-0.276205 -0.532920 0.082204 76 0 153
0.364857 -0.026970 0.049655 0 255 0
0.364857 -0.008784 0.289211 0 255 0
0.031815 0.075914 -0.131913 0 127 127
0.343407 0.284854 -0.311079 76 0 153
-0.334847 -0.003996 -0.146278 255 0 0
-0.039570 0.075914 -0.189665 0 127 127
0.301845 0.641928 -0.315966 76 0 153
0.301845 0.324582 -0.243344 76 0 153
0.353394 -0.187115 -0.219685 76 153 0
-0.251006 -0.532920 0.058819 76 0 153
0.323263 -0.252914 0.523237 0 127 127
0.310754 0.022683 -0.193643 0 255 0
-0.396266 -0.127357 0.442466 76 0 153
-0.338617 -0.494884 -0.052427 153 76 0
-0.057906 0.076048 -0.250202 0 127 127
-0.096160 0.075914 -0.137877 0 127 127
0.356659 -0.714075 -0.330370 76 153 0
-0.233504 0.075914 0.185991 0 127 127
-0.060283 0.293964 -0.285778 0 0 255
0.196232 0.762699 -0.295128 255 0 0
0.153656 0.035772 -0.035125 0 127 127
0.301845 0.282032 -0.226800 76 0 153
-0.320145 0.075914 0.249723 0 127 127
0.212342 -0.527561 0.105385 76 0 153
0.043526 0.228293 -0.241701 0 0 255
-0.253893 0.035772 0.004512 0 127 127
0.364857 0.002930 0.355993 0 255 0
-0.382594 0.023955 -0.297568 127 127 0
0.310368 0.075717 -0.235055 76 0 153
-0.220091 0.035772 -0.059027 0 127 127
-0.198329 -0.505582 0.042413 76 0 153
0.213752 0.731493 -0.275248 255 0 0
0.166729 0.650010 -0.284045 255 0 0
-0.034487 0.279111 -0.262483 0 0 255
0.332436 -0.552118 0.344841 153 0 76
-0.304533 0.075914 0.209919 0 127 127
0.093167 -0.052264 -0.286804 127 127 0
-0.282649 0.075914 0.178245 0 127 127
-0.396266 -0.327442 -0.270484 153 0 76
-0.334847 0.011039 0.343980 255 0 0
-0.305326 0.075914 0.443592 0 127 127
-0.193473 0.035772 0.005234 0 127 127
-0.375596 -0.051492 0.408810 255 0 0
0.351443 0.056882 -0.120871 0 127 127
0.352777 0.036002 0.018257 0 255 0
-0.074140 0.075914 0.451719 0 127 127
-0.334847 -0.035995 -0.121297 255 0 0
-0.346130 -0.187416 0.418521 76 0 153
0.091261 0.035772 0.068219 0 127 127
0.351970 0.007900 -0.211018 0 255 0
-0.396266 -0.028261 0.430645 255 0 0
0.143906 0.035000 -0.257276 0 127 127
0.371656 -0.312467 -0.311287 76 153 0
-0.011450 0.075914 -0.169048 0 127 127
0.198947 0.075914 0.275612 0 127 127
0.371656 0.726502 -0.255958 76 0 153
-0.265549 0.035772 0.511973 127 0 127
-0.023655 0.035772 -0.102812 0 127 127
-0.355212 -0.563881 0.418521 76 0 153
-0.388951 0.032955 0.388373 255 0 0
0.245742 0.075914 0.401386 0 127 127
-0.076471 0.004341 0.461410 127 0 127
-0.326455 0.689107 -0.273965 255 0 0
0.228781 -0.028705 0.512022 127 0 127
-0.334847 0.019201 0.170190 255 0 0
-0.330220 -0.102038 -0.303168 153 0 76
-0.151010 0.772595 -0.277988 255 0 0
0.345504 -0.552118 0.189751 153 0 76
-0.107232 0.784332 -0.313753 255 0 0
0.301845 0.109712 -0.290850 76 0 153
0.371656 -0.130552 -0.286045 76 153 0
0.343995 -0.601685 -0.238111 76 153 0
-0.396266 -0.593136 0.498849 76 0 153
-0.129883 0.188844 -0.250130 0 0 255
-0.388951 -0.004273 -0.141835 255 0 0
0.070651 0.186877 -0.291198 0 0 255
-0.041048 0.389863 -0.282208 153 0 76
0.115156 0.035772 -0.200509 0 127 127
-0.396266 0.680842 -0.267860 153 76 0
-0.395942 -0.551783 -0.323157 153 0 76
-0.396266 -0.500830 -0.303364 153 0 76
-0.371415 -0.051492 0.279723 255 0 0
0.320319 0.831089 -0.295033 76 0 153
0.198687 0.713516 -0.309032 255 0 0
0.315188 -0.051492 0.324157 0 255 0
-0.338357 -0.046816 -0.213450 255 0 0
0.083816 0.739642 -0.275791 255 0 0
0.074725 0.366502 -0.256162 204 51 127
-0.341744 0.035772 0.106049 255 0 0
-0.326455 -0.409269 0.515382 76 0 153
0.321673 -0.051492 -0.092586 0 255 0
0.245260 0.035772 0.342337 0 127 127
-0.076701 0.035772 0.027899 0 127 127
-0.342379 -0.587476 -0.324743 153 0 76
0.347919 -0.485320 0.523237 0 127 127
0.371656 -0.637868 -0.259272 76 153 0
-0.303493 0.075914 0.291101 0 127 127
-0.388951 -0.033157 0.047416 255 0 0
-0.338617 -0.547731 0.328789 153 76 0
0.307512 0.075914 -0.076236 0 127 127
0.209296 0.053381 0.502136 127 0 127
-0.340059 0.337311 -0.227312 153 76 0
0.371656 -0.456596 0.471012 0 127 127
-0.318828 0.293964 -0.284422 0 0 255
0.335222 -0.482307 0.253592 153 0 76
-0.326455 0.663722 -0.336161 153 76 0
0.371656 -0.095896 0.465459 0 127 127
-0.326455 0.695263 -0.311452 153 76 0
-0.060104 0.075914 -0.212258 0 127 127
-0.357870 0.042059 -0.250129 127 127 0
-0.334847 -0.009673 0.310612 255 0 0
0.139639 0.075914 -0.076123 0 127 127
0.313794 0.739564 -0.254129 76 0 153
0.350589 0.484038 -0.237094 76 0 153
-0.280085 0.075914 0.209211 0 127 127
0.352617 0.050765 -0.198018 0 127 127
0.371656 0.089000 -0.234098 76 0 153
0.342908 -0.482307 0.023002 153 0 76
-0.367110 -0.003514 -0.298789 127 127 0
-0.360570 0.240270 -0.308107 153 76 0
0.301845 -0.410917 -0.280721 76 153 0
-0.354123 0.074908 0.184710 0 127 127
-0.346515 -0.051492 0.088210 255 0 0
0.090090 0.075914 0.188765 0 127 127
0.236950 0.187934 -0.265894 0 0 255
0.323252 0.000500 0.418521 0 255 0
-0.322392 -0.516732 0.042413 76 0 153
0.352631 -0.455900 -0.231631 76 153 0
-0.312607 0.735473 -0.275513 255 0 0
-0.052006 0.747008 -0.311265 255 0 0
0.148872 0.075914 -0.008265 0 127 127
-0.115566 0.398510 -0.278442 153 0 76
-0.290410 0.075914 -0.072266 0 127 127
0.301845 -0.514738 -0.281451 76 153 0
-0.024076 0.035772 0.446571 0 127 127
-0.396266 -0.424999 -0.293279 153 0 76
-0.091458 0.527029 -0.289653 153 0 76
-0.114424 0.552095 -0.293024 153 0 76
-0.396266 -0.297778 0.488846 76 0 153
0.352598 0.051039 -0.219809 76 0 153
0.365783 -0.520704 0.514606 0 127 127
0.261618 0.293964 -0.274185 0 0 255
-0.378805 0.035772 -0.128688 255 0 0
-0.177074 0.035772 0.311542 0 127 127
-0.377512 -0.482307 0.018846 153 76 0
-0.281303 0.293964 -0.291921 0 0 255
-0.028970 0.056343 -0.274966 127 127 0
-0.343971 -0.060641 0.418521 76 0 153
0.371656 -0.018859 -0.239270 0 255 0
-0.157449 0.262632 -0.296248 0 0 255
-0.396266 0.239127 -0.304105 153 76 0
0.344458 0.068196 -0.167893 0 127 127
-0.396266 -0.334001 0.469249 76 0 153
0.337313 0.073297 0.236596 0 127 127
-0.060115 0.442647 -0.285727 153 0 76
0.153845 0.004544 0.512022 127 0 127
0.371656 0.641004 -0.260950 76 0 153
0.097517 0.075914 0.437129 0 127 127
-0.326455 -0.293055 0.495348 76 0 153
-0.396266 0.393990 -0.299663 153 76 0
0.301845 -0.319319 0.493707 0 127 127
0.371656 -0.006174 0.503938 0 255 0
0.337885 0.072981 0.065429 0 127 127
-0.385740 -0.482381 -0.168928 153 76 0
0.192771 0.035772 0.073303 0 127 127
0.310754 0.025675 0.136796 0 255 0
0.293953 0.075914 0.375751 0 127 127
-0.123336 0.075914 0.391049 0 127 127
0.352164 0.221318 -0.306843 76 0 153
0.364857 -0.011299 0.139447 0 255 0
-0.348532 -0.051492 -0.044310 255 0 0
-0.311712 0.075914 0.412806 0 127 127
0.371656 0.755436 -0.274226 76 0 153
0.213768 0.075914 0.254250 0 127 127
0.041313 0.804426 -0.280110 255 0 0
-0.211750 -0.010324 0.461410 127 0 127
-0.336331 0.456877 -0.235283 153 76 0
0.292852 0.035000 -0.277743 127 127 0
-0.038684 -0.009231 0.461410 127 0 127
-0.338617 -0.534097 -0.129779 153 76 0
0.128304 0.035772 0.092827 0 127 127
0.301845 0.721323 -0.312730 255 0 0
-0.396266 -0.116546 -0.232501 153 0 76
-0.388951 0.003675 0.404800 255 0 0
0.371656 -0.157057 -0.276254 76 153 0
0.253086 0.745935 -0.311194 255 0 0
-0.109416 0.014244 -0.256936 127 127 0
-0.326455 0.872776 -0.305429 153 76 0
-0.385740 -0.501413 0.097577 153 76 0
0.371656 -0.429001 -0.273130 76 153 0
0.108313 0.075914 0.228520 0 127 127
0.277281 0.075914 0.028034 0 127 127
-0.223718 0.075914 -0.030619 0 127 127
-0.355001 0.852642 -0.348931 153 76 0
0.212634 0.035772 0.469752 127 0 127
-0.116288 0.035772 0.438065 127 0 127
-0.114875 0.019014 0.461410 127 0 127
0.263699 0.019147 0.461410 127 0 127
-0.367662 0.857972 -0.279482 153 76 0
0.328128 -0.539518 -0.322612 76 153 0
-0.326455 -0.276016 -0.286859 153 0 76
-0.286990 0.076008 0.472642 0 127 127
0.301845 -0.724722 -0.301530 76 153 0
-0.396266 -0.359564 0.482826 76 0 153
0.098248 0.293964 -0.266218 0 0 255
-0.260631 0.669637 -0.306107 255 0 0
-0.071249 0.075914 0.331651 0 127 127
0.371656 -0.474517 0.435483 0 127 127
0.100737 0.076152 0.475366 0 127 127
-0.030368 0.297144 -0.255398 0 0 255
0.236720 0.012653 0.512022 127 0 127
-0.344982 0.829708 -0.297282 153 76 0
0.028777 0.035772 0.066980 0 127 127
-0.385740 -0.512192 -0.246695 153 0 76
-0.079551 0.035000 -0.257590 0 127 127
-0.347533 -0.552118 -0.151515 153 76 0
-0.014709 0.075914 0.379824 0 127 127
0.368769 0.406731 -0.231940 76 0 153
-0.200709 0.075983 0.477564 0 127 127
-0.396266 0.014818 0.430788 255 0 0
-0.326455 -0.497475 -0.300680 153 0 76
-0.004155 0.283620 -0.297647 0 0 255
0.371656 -0.082776 0.430700 0 127 127
-0.287910 0.075914 -0.034761 0 127 127
-0.326455 -0.500770 -0.234617 153 0 76
-0.063162 0.075914 0.035537 0 127 127
-0.294624 0.667957 -0.271012 255 0 0
0.033296 0.075994 0.477419 0 127 127
0.350836 -0.383402 0.418521 0 127 127
0.280766 0.729633 -0.310107 255 0 0
-0.396266 0.370239 -0.237449 153 76 0
0.310754 -0.001388 0.194157 0 255 0
-0.062936 0.035772 0.450331 0 127 127
-0.254859 0.684723 -0.272130 255 0 0
-0.326455 -0.428904 0.439183 76 0 153
0.364857 -0.034890 0.400534 0 255 0
0.135413 0.035772 0.455967 127 0 127
-0.334847 -0.011690 0.197674 255 0 0
-0.396266 -0.422997 -0.256180 153 0 76
0.363939 -0.051492 0.153976 0 255 0
0.147299 0.075914 0.203293 0 127 127
0.371656 -0.584035 -0.291767 76 153 0
0.310754 -0.004547 0.114342 0 255 0
0.042923 0.075914 0.227714 0 127 127
0.371656 -0.210411 0.523179 0 127 127
-0.312164 0.035772 0.114472 255 0 0
-0.350719 0.065427 -0.217568 153 76 0
-0.382076 -0.395938 -0.228967 153 0 76
-0.029189 0.075914 0.210947 0 127 127
0.032294 0.205764 -0.240199 0 0 255
0.327955 0.809173 -0.302381 76 0 153
-0.396266 -0.028503 -0.278411 127 127 0
0.369135 -0.252590 -0.309859 76 153 0
-0.385740 -0.525098 0.201140 153 76 0
-0.396100 -0.216611 -0.220996 153 0 76
0.349112 0.145108 -0.301762 76 0 153
0.224609 0.648660 -0.304296 255 0 0
-0.392920 0.784897 -0.344415 153 76 0
0.087719 -0.532920 0.082662 76 0 153
-0.375420 -0.239696 -0.309286 153 0 76
-0.049314 -0.035358 -0.290096 127 127 0
0.364857 -0.035662 -0.196628 0 255 0
-0.227616 -0.037819 -0.290096 127 127 0
0.314062 -0.512502 -0.178167 153 0 76
0.082331 0.691674 -0.272593 255 0 0
0.311142 -0.006742 0.523237 0 255 0
0.352418 -0.327879 -0.225942 76 153 0
0.371656 -0.029081 0.518418 0 255 0
0.009354 0.234428 -0.242110 0 0 255
-0.041050 0.189220 -0.243618 0 0 255
0.354154 0.035772 0.340121 0 127 127
0.312814 -0.341619 -0.313816 76 153 0
-0.226112 0.746912 -0.311259 255 0 0
-0.326455 -0.048951 0.516996 255 0 0
0.371656 -0.682527 0.446767 0 127 127
0.364857 -0.013703 0.213900 0 255 0
0.034644 0.723488 -0.274714 255 0 0
0.077857 0.075914 0.145090 0 127 127
-0.343396 -0.726474 -0.281869 153 0 76
0.310754 -0.028071 -0.201858 0 255 0
0.301845 -0.415596 0.442422 0 127 127
-0.102698 0.073519 -0.260233 127 127 0
0.347706 -0.447949 -0.318542 76 153 0
0.180372 0.035772 0.202501 0 127 127
0.337172 -0.552118 -0.175464 153 0 76
-0.338617 -0.532386 -0.016980 153 76 0
0.371656 -0.352304 0.427169 0 127 127
0.301845 -0.087359 0.437221 0 127 127
-0.212060 0.075914 0.369908 0 127 127
-0.396266 0.168249 -0.280314 153 76 0
-0.373577 0.042396 0.122353 0 127 127
-0.037062 0.075914 -0.124931 0 127 127
-0.334847 -0.001798 -0.182610 255 0 0
-0.326455 -0.335864 -0.303978 153 0 76
-0.388799 -0.461002 0.523237 76 0 153
0.118371 0.075914 -0.180446 0 127 127
-0.367605 -0.256613 -0.222774 153 0 76
0.321799 0.747323 -0.341910 76 0 153
-0.339962 0.204958 -0.305752 153 76 0
-0.264674 0.075914 0.067261 0 127 127
0.142153 0.783789 -0.295336 255 0 0
-0.094278 -0.498015 0.046471 76 0 153
-0.383430 0.035772 -0.038648 255 0 0
0.301845 -0.261816 0.479881 0 127 127
0.359439 -0.545735 0.372135 153 0 76
-0.388951 0.003095 0.165015 255 0 0
0.336590 -0.552118 0.147816 153 0 76
-0.209043 0.046780 0.502619 127 0 127
-0.385740 -0.496540 0.276295 153 76 0
0.321362 0.064410 0.161201 0 127 127
-0.378278 -0.552118 0.186294 153 76 0
0.308881 0.075914 -0.114512 0 127 127
0.301845 -0.149177 0.482929 0 127 127
-0.396266 -0.179141 0.435223 76 0 153
-0.388951 -0.046057 -0.113320 255 0 0
-0.050544 0.075914 0.123567 0 127 127
-0.229842 0.035772 -0.005429 0 127 127
-0.334602 -0.307774 -0.225048 153 0 76
0.371557 0.644305 -0.335042 76 0 153
-0.006802 0.075914 0.355931 0 127 127
-0.326455 -0.027289 0.422683 255 0 0
0.310754 -0.037666 0.364114 0 255 0
0.332663 -0.051492 0.104194 0 255 0
0.364857 0.026026 -0.104584 0 255 0
0.187307 0.189337 -0.241580 0 0 255
-0.281085 0.035772 0.325601 255 0 0
-0.085977 0.035772 0.204292 0 127 127
0.312927 -0.032911 0.418521 0 255 0
0.105462 0.726268 -0.274899 255 0 0
-0.326455 -0.108566 -0.269530 153 0 76
0.341876 -0.482307 -0.084265 153 0 76
0.099133 -0.051492 0.466432 127 0 127
-0.105069 -0.017109 0.461410 127 0 127
0.037655 0.734428 -0.310427 255 0 0
-0.079794 0.075914 0.359495 0 127 127
-0.208682 0.035772 0.342318 0 127 127
-0.396266 -0.679150 0.505474 76 0 153
-0.278038 0.035772 0.369598 255 0 0
0.112724 0.075914 0.203173 0 127 127
-0.347674 -0.414619 0.418521 76 0 153
-0.067887 0.035772 -0.083964 0 127 127
0.187325 0.214973 -0.293071 0 0 255
0.258862 0.035772 -0.130194 0 127 127
0.301845 -0.014341 0.445674 127 0 127
-0.193135 -0.034938 0.461410 127 0 127
0.138198 -0.051492 0.472367 127 0 127
-0.054583 0.035772 -0.155946 0 127 127
-0.370364 -0.489164 0.523237 76 0 153
-0.341902 0.088738 -0.233118 153 76 0
0.311774 -0.051492 0.236452 0 255 0
0.371656 -0.053519 0.447951 0 255 0
-0.006329 0.075914 0.304233 0 127 127
-0.170049 0.035772 0.390094 0 127 127
-0.326455 -0.622754 0.516668 76 0 153
-0.326455 -0.531950 0.491998 76 0 153
0.321362 0.056164 0.323485 0 127 127
-0.020479 0.282723 -0.245330 0 0 255
-0.338617 -0.487274 -0.000800 153 76 0
0.122542 0.060713 0.499733 127 0 127
-0.074606 -0.038115 0.512022 127 0 127
0.314062 -0.533934 0.330640 153 0 76
-0.326455 0.272480 -0.232478 153 76 0
0.371656 -0.180847 0.506834 0 127 127
0.031703 0.035772 0.351676 0 127 127
-0.132496 0.035772 0.406482 0 127 127
-0.343486 0.420188 -0.232837 153 76 0
0.267321 0.035772 0.445440 127 0 127
-0.067775 0.035772 0.237362 0 127 127
-0.388951 -0.000055 -0.058399 255 0 0
-0.246167 -0.498015 0.059662 76 0 153
0.147472 -0.501462 0.105385 76 0 153
0.269140 -0.018371 0.512022 0 255 0
-0.326455 -0.336997 0.505334 76 0 153
0.072501 0.075914 0.093750 0 127 127
0.314062 -0.505138 0.356507 153 0 76
-0.388951 0.017287 -0.177835 255 0 0
0.337376 0.073262 0.209005 0 127 127
-0.388951 -0.001699 -0.018978 255 0 0
-0.372936 -0.314008 -0.225325 153 0 76
-0.096038 0.075914 0.030185 0 127 127
0.105091 -0.498015 0.047744 76 0 153
0.301845 -0.451294 -0.299528 76 153 0
-0.326455 -0.365018 0.440055 76 0 153
-0.326455 -0.569749 -0.277834 153 0 76
-0.348910 -0.093714 -0.215534 153 0 76
-0.342486 -0.109241 0.418521 76 0 153
-0.338044 -0.051492 0.391574 255 0 0
-0.015168 -0.532920 0.042673 76 0 153
-0.326455 -0.288799 0.433970 76 0 153
-0.334847 0.017009 0.083130 255 0 0
-0.326455 -0.152448 -0.218913 153 0 76
0.011889 0.293964 -0.261339 0 0 255
-0.208169 -0.498015 0.069285 76 0 153
0.342321 -0.051492 -0.121474 0 255 0
-0.354410 -0.252115 0.523237 76 0 153
0.303867 0.075914 0.306260 0 127 127
-0.150152 0.353071 -0.255466 153 0 76
-0.326455 -0.164764 -0.268097 153 0 76
-0.380272 -0.482307 0.174631 153 76 0
0.301845 -0.275677 -0.269053 76 153 0
-0.350914 0.075666 0.094544 0 127 127
0.335161 -0.482307 -0.218107 153 0 76
-0.375154 -0.358771 -0.314579 153 0 76
-0.157660 0.035000 -0.267913 127 127 0
0.298172 -0.528925 0.042413 153 0 76
0.065655 0.760439 -0.312161 255 0 0
-0.373577 0.039823 0.352008 0 127 127
-0.338617 -0.502856 -0.190305 153 76 0
0.021342 0.075914 -0.234566 0 127 127
0.186923 0.035772 -0.076123 0 127 127
-0.326455 -0.367755 -0.230506 153 0 76
0.371656 -0.554470 0.438258 0 127 127
-0.198846 0.075914 0.138996 0 127 127
-0.000930 0.188783 -0.251179 0 0 255
0.081730 -0.521616 0.105385 76 0 153
0.170616 0.035772 0.410988 0 127 127
0.115525 0.387944 -0.257716 204 51 127
-0.287647 0.035772 0.096150 0 127 127
-0.146912 0.035772 0.008075 0 127 127
0.027377 0.823343 -0.316354 255 0 0
0.119445 -0.521673 0.105385 76 0 153
-0.309779 0.293964 -0.267998 0 0 255
-0.396266 0.269387 -0.266516 153 76 0
0.301845 0.309447 -0.305422 76 0 153
-0.121248 -0.026784 -0.256936 127 127 0
0.327949 0.068612 0.493886 0 127 127
-0.039572 0.260641 -0.243858 0 0 255
0.371656 0.249667 -0.233496 76 0 153
-0.396266 0.251862 -0.236539 153 76 0
-0.288625 0.293964 -0.266193 0 0 255
0.084766 0.035772 -0.045386 0 127 127
-0.296462 0.035772 0.211850 255 0 0
-0.034677 0.035772 -0.070201 0 127 127
-0.340512 -0.265949 -0.310453 153 0 76
0.088914 0.075914 -0.044888 0 127 127
0.347363 -0.349485 0.418521 0 127 127
0.185941 0.075914 0.054149 0 127 127
0.301845 0.166308 -0.287007 76 0 153
-0.396266 0.618216 -0.333186 153 76 0
0.371656 0.786161 -0.335971 76 0 153
0.371656 -0.079747 -0.280831 76 153 0
0.338828 -0.552118 0.111365 153 0 76
-0.159925 -0.532920 0.068525 76 0 153
0.342791 0.069894 -0.296748 76 0 153
0.000964 0.035772 -0.130627 0 127 127
-0.335084 0.150761 -0.239450 153 76 0
0.371656 -0.406430 0.434358 0 127 127
-0.396266 -0.184034 -0.238192 153 0 76
-0.359919 -0.552118 -0.024476 153 76 0
0.334817 0.030401 0.418521 0 255 0
-0.205746 0.035772 -0.218566 0 127 127
-0.326455 -0.714652 -0.307742 153 0 76
-0.380610 -0.647886 0.523237 76 0 153
-0.357020 0.888781 -0.298575 153 76 0
-0.105480 0.075914 0.208243 0 127 127
0.089881 0.759038 -0.277084 255 0 0
-0.038472 0.075914 0.061707 0 127 127
-0.239383 0.035772 0.064097 0 127 127
-0.368146 -0.482307 -0.050913 153 76 0
0.161476 0.075914 0.079113 0 127 127
-0.388951 -0.014647 0.370592 255 0 0
-0.395285 0.035772 0.506015 255 0 0
0.364857 -0.003609 0.401448 0 255 0
0.202892 0.075914 -0.149803 0 127 127
0.369039 -0.300239 0.418521 0 127 127
-0.356478 0.074018 0.458899 0 127 127
-0.379914 -0.726474 0.430235 76 0 153
0.304452 0.035772 0.122240 0 255 0
0.301845 -0.634306 -0.307682 76 153 0
-0.334847 -0.007160 0.236571 255 0 0
0.359439 -0.504073 -0.032809 153 0 76
-0.385740 -0.541896 0.068716 153 76 0
-0.326455 0.000727 0.441445 255 0 0
0.301845 -0.090350 -0.286154 76 153 0
-0.046628 -0.513575 0.105385 76 0 153
0.348673 0.834260 -0.290920 76 0 153
0.260615 0.075914 0.423430 0 127 127
-0.088604 0.765348 -0.312488 255 0 0
0.149935 0.008500 -0.256936 127 127 0
-0.396266 0.843415 -0.301969 153 76 0
-0.014145 0.075914 0.058386 0 127 127
0.129793 0.075914 -0.150217 0 127 127
0.066114 0.230801 -0.294126 0 0 255
-0.396266 -0.068005 0.434056 76 0 153
0.009914 0.051103 0.502435 0 127 127
0.209314 0.221779 -0.241267 0 0 255
0.138342 0.235225 -0.242163 0 0 255
-0.384285 -0.101806 0.418521 76 0 153
-0.321520 0.075914 -0.144897 0 127 127
0.346068 -0.030634 0.418521 0 255 0
-0.378850 0.291570 -0.224263 153 76 0
0.270274 0.035772 -0.104913 0 127 127
0.301845 -0.605872 -0.308431 76 153 0
0.301845 0.386781 -0.248548 76 0 153
0.118925 0.035772 -0.085732 0 127 127
0.345415 -0.051492 0.144414 0 255 0
-0.396266 0.196758 -0.303299 153 76 0
0.058802 0.075914 0.359288 0 127 127
0.301845 -0.379043 0.455551 0 127 127
-0.396266 -0.353907 -0.247607 153 0 76
-0.385740 -0.535214 0.377656 153 76 0
-0.167077 0.035772 -0.228942 0 127 127
-0.055632 0.035772 0.217679 0 127 127
-0.383526 0.253444 -0.221721 153 76 0
0.359439 -0.536760 -0.048535 153 0 76
0.203019 0.035772 0.290708 0 127 127
-0.334847 0.018608 -0.104767 255 0 0
-0.036582 0.308578 -0.276789 0 0 255
-0.350918 -0.147067 -0.305169 153 0 76
-0.357705 0.148853 -0.240375 153 76 0
0.359439 -0.551731 0.271213 153 0 76
0.310716 0.075914 0.008548 0 127 127
-0.396266 0.475764 -0.259073 153 76 0
0.347730 0.064347 0.456534 0 127 127
0.353280 -0.726474 0.443309 0 127 127
0.247870 0.075914 0.143623 0 127 127
-0.326455 0.523811 -0.293033 153 76 0
0.301845 -0.030463 -0.238854 0 255 0
-0.308575 0.013922 0.461410 255 0 0
0.214432 0.035772 -0.168094 0 127 127
0.318659 -0.065917 -0.214299 0 255 0
0.371656 -0.709607 -0.318237 76 153 0
-0.070103 0.555946 -0.293280 153 0 76
0.131418 0.076032 0.473007 0 127 127
-0.045011 0.035772 0.089296 0 127 127
0.065813 0.075914 -0.067180 0 127 127
-0.101806 -0.040536 -0.290096 127 127 0
0.301845 0.411296 -0.234778 76 0 153
0.363154 0.548983 -0.241423 76 0 153
0.371656 0.335593 -0.278651 76 0 153
-0.020659 0.035772 0.383927 0 127 127
0.300318 0.186627 -0.288528 0 0 255
-0.356722 0.234347 -0.220448 153 76 0
-0.378885 0.362430 -0.316251 153 76 0
0.061262 0.075914 -0.009474 0 127 127
-0.021127 0.717885 -0.297946 255 0 0
0.010633 -0.021303 -0.256936 127 127 0
-0.108126 0.035772 0.375339 0 127 127
0.264817 0.035772 0.052512 0 127 127
0.313597 0.075914 0.376654 0 127 127
0.062102 -0.037201 -0.290096 127 127 0
-0.379508 -0.109846 -0.216251 153 0 76
-0.332727 -0.127462 -0.217034 153 0 76
0.281311 0.035772 0.192758 0 127 127
0.371656 -0.452117 -0.302220 76 153 0
0.007048 0.031893 0.461410 127 0 127
0.315864 -0.418036 0.418521 0 127 127
0.358119 -0.710631 0.418521 0 127 127
0.101746 0.242927 -0.294935 0 0 255
0.221889 -0.007978 0.461410 127 0 127
-0.130382 0.073570 0.486659 0 127 127
0.317082 -0.481008 0.418521 0 127 127
0.352309 0.053312 0.334329 0 127 127
0.327676 -0.726474 0.427268 0 127 127
-0.019261 0.075914 0.161957 0 127 127
0.364857 -0.028998 -0.137033 0 255 0
-0.185791 0.075914 0.057165 0 127 127
-0.111123 -0.009073 -0.290096 127 127 0
0.310754 -0.009868 0.335595 0 255 0
0.362510 0.035772 -0.152689 0 255 0
0.042169 0.425093 -0.284557 204 51 127
0.199253 0.075914 -0.107772 0 127 127
0.343193 -0.545908 0.493872 0 127 127
-0.064024 0.075914 0.269202 0 127 127
0.264927 -0.051492 0.468484 127 0 127
0.301845 -0.390494 0.478451 0 127 127
0.314218 0.038784 0.502619 0 255 0
-0.186769 0.075914 -0.142362 0 127 127
0.351119 -0.257898 0.418521 0 127 127
0.213995 0.075914 -0.046047 0 127 127
0.063937 0.075914 0.255612 0 127 127
-0.289589 0.075914 0.074022 0 127 127
-0.334847 -0.036794 -0.070119 255 0 0
0.371656 -0.082960 -0.216434 76 153 0
-0.051768 0.366024 -0.256131 153 0 76
0.256588 0.035000 -0.262471 127 127 0
-0.326455 -0.584861 0.431593 76 0 153
-0.369852 0.062257 0.110142 0 127 127
0.119308 0.292591 -0.298245 0 0 255
0.359439 -0.511815 0.300210 153 0 76
-0.085549 0.637370 -0.298708 255 0 0
0.252131 0.075914 0.076150 0 127 127
-0.377682 0.019291 -0.210512 255 0 0
-0.382611 -0.608437 -0.325675 153 0 76
0.181516 0.035000 -0.270776 127 127 0
-0.035350 0.035772 -0.032062 0 127 127
-0.358625 0.073015 0.060323 0 127 127
0.310754 0.026728 0.083290 0 255 0
-0.059771 0.520693 -0.290930 153 0 76
0.371656 0.531809 -0.320396 76 0 153
0.359439 -0.548801 0.317037 153 0 76
-0.386398 0.865445 -0.280466 153 76 0
0.364857 0.031785 0.188572 0 255 0
-0.345659 -0.225023 0.523237 76 0 153
0.301845 0.534208 -0.249635 76 0 153
0.353850 -0.183072 0.418521 0 127 127
-0.396266 0.778538 -0.307748 153 76 0
-0.326455 -0.708509 0.481550 76 0 153
-0.388951 -0.033981 -0.029948 255 0 0
0.068268 0.075914 0.294525 0 127 127
0.371656 0.614711 -0.260522 76 0 153
-0.344177 -0.482307 0.195400 153 76 0
-0.101611 0.059142 0.500445 127 0 127
-0.388951 0.035546 0.107070 255 0 0
0.301845 -0.170103 0.507790 0 127 127
0.356466 -0.624389 -0.239120 76 153 0
0.079028 0.035772 0.322501 0 127 127
-0.366017 -0.102223 0.523237 76 0 153
-0.396266 -0.395456 -0.269529 153 0 76
-0.074653 0.035772 -0.192909 0 127 127
-0.396266 -0.203688 -0.235667 153 0 76
0.323666 -0.284468 0.418521 0 127 127
-0.140409 -0.498015 0.060833 76 0 153
-0.035383 -0.028103 0.512022 127 0 127
0.310754 -0.047673 0.269357 0 255 0
-0.334847 0.024061 0.011737 255 0 0
0.056828 0.644246 -0.293031 255 0 0
0.279581 0.035772 -0.145672 0 127 127
-0.373577 0.045097 0.077445 0 127 127
0.008741 0.582959 -0.270593 204 51 127
0.371656 -0.234766 -0.263490 76 153 0
-0.345750 -0.171176 0.523237 76 0 153
-0.396266 0.203383 -0.261001 153 76 0
0.371656 0.470984 -0.250747 76 0 153
-0.197855 0.035772 0.069946 0 127 127
-0.379392 -0.505258 0.521599 76 0 153
0.310754 -0.007266 0.155177 0 255 0
0.371656 0.354230 -0.276516 76 0 153
0.127207 0.035000 -0.268815 127 127 0
0.230693 0.035772 0.319388 0 127 127
-0.373275 0.225765 -0.307140 153 76 0
-0.326455 -0.078437 0.508101 76 0 153
0.337935 -0.552118 -0.053928 153 0 76
0.301845 -0.565472 -0.271297 76 153 0
0.215824 0.075914 0.197978 0 127 127
-0.362992 -0.350079 -0.226928 153 0 76
0.120192 0.649626 -0.289802 255 0 0
0.310754 0.002051 0.266179 0 255 0
-0.132353 0.035772 -0.036676 0 127 127
-0.396266 -0.698896 -0.244678 153 0 76
0.364857 0.016741 0.032254 0 255 0
0.321362 0.037179 0.281448 0 255 0
0.303202 0.112354 -0.243307 76 0 153
-0.396266 -0.202119 0.513430 76 0 153
0.048252 0.035772 0.102575 0 127 127
0.032917 0.035772 -0.089003 0 127 127
0.301845 -0.249209 -0.242905 76 153 0
0.340087 -0.051492 0.261974 0 255 0
-0.196477 0.008974 0.512022 127 0 127
0.301845 -0.162368 -0.237667 76 153 0
0.351324 -0.227725 0.523237 0 127 127
-0.338617 -0.535583 -0.219445 153 76 0
-0.350597 -0.482307 0.308883 153 76 0
-0.053081 0.075914 0.182316 0 127 127
0.259316 0.757112 -0.295148 255 0 0
0.224485 0.035772 0.102524 0 127 127
-0.022536 -0.498015 0.060159 76 0 153
-0.255634 0.035772 -0.092507 0 127 127
0.281158 0.035772 -0.193925 0 255 0
0.310754 -0.007540 0.360556 0 255 0
-0.396266 -0.201820 0.474405 76 0 153
-0.149444 0.075914 0.063342 0 127 127
-0.374180 -0.552118 0.148753 153 76 0
0.032216 0.075914 0.350092 0 127 127
0.301845 0.664867 -0.263782 76 0 153
-0.326455 -0.462559 0.522696 76 0 153
-0.376911 -0.051492 0.003636 255 0 0
0.037653 0.187086 -0.280579 0 0 255
-0.001283 0.075943 0.478091 0 127 127
0.115991 0.768999 -0.277748 255 0 0
0.324298 -0.051492 -0.194218 0 255 0
-0.157370 0.075914 0.012800 0 127 127
-0.396266 -0.365882 -0.293799 153 0 76
-0.050712 -0.532920 0.102519 76 0 153
-0.396266 -0.480589 0.430015 76 0 153
-0.388951 0.026633 0.062733 255 0 0
0.269484 0.697285 -0.272967 255 0 0
-0.195165 0.075914 0.181958 0 127 127
0.314062 -0.497368 0.065921 76 0 153
-0.326455 0.495494 -0.249752 153 76 0
0.302788 -0.530818 0.505832 0 127 127
-0.326455 -0.202944 0.489129 76 0 153
0.371656 -0.464732 0.509027 0 127 127
-0.374081 0.093579 -0.235744 153 76 0
0.283853 0.236711 -0.294520 0 0 255
0.030291 0.035772 0.325594 0 127 127
-0.326455 -0.022367 0.459652 255 0 0
0.102166 -0.515456 0.105385 76 0 153
-0.326455 0.011397 0.467681 255 0 0
-0.385740 -0.507924 -0.207855 153 76 0
-0.254047 -0.049624 0.461410 127 0 127
-0.087478 0.186928 -0.283317 0 0 255
-0.326455 -0.461286 0.445176 76 0 153
-0.261137 0.075914 -0.026344 0 127 127
0.314062 -0.521341 0.262505 153 0 76
0.305573 -0.251203 -0.309798 76 153 0
-0.359374 -0.482307 -0.085722 153 76 0
-0.152539 0.021219 -0.256936 0 127 127
-0.234052 0.026843 -0.256936 127 127 0
-0.377274 -0.353346 0.418521 76 0 153
0.355180 -0.365501 -0.314878 76 153 0
-0.326455 0.141955 -0.289300 153 76 0
0.005798 0.838003 -0.306568 255 0 0
0.191286 0.649963 -0.304795 255 0 0
-0.279110 0.035772 -0.055088 0 127 127
-0.022352 0.822862 -0.281339 255 0 0
-0.207502 0.267193 -0.244294 0 0 255
0.268779 0.035772 -0.072021 0 127 127
0.119392 0.622828 -0.297739 204 51 127
-0.142497 0.075914 0.206943 0 127 127
0.371656 -0.015651 0.430104 0 255 0
0.217780 0.035772 0.158532 0 127 127
-0.326802 -0.325717 0.523237 76 0 153
-0.268975 -0.033946 -0.290096 127 127 0
-0.385315 0.132479 -0.245068 153 76 0
-0.396266 -0.101674 -0.269393 153 0 76
-0.114664 0.035772 0.249378 0 127 127
0.360295 0.036523 -0.297010 0 255 0
-0.157194 -0.515090 0.042413 76 0 153
-0.257315 0.035772 0.071447 0 127 127
0.320550 0.075914 -0.148770 0 127 127
-0.320626 0.075914 0.053067 0 127 127
0.281229 -0.031779 0.461410 127 0 127
0.329263 -0.542364 -0.235474 153 0 76
0.010041 0.035772 0.275583 0 127 127
0.301845 0.859111 -0.339386 76 0 153
-0.363973 -0.552118 0.093643 153 76 0
-0.197638 -0.052264 -0.278255 127 127 0
0.324312 -0.207604 -0.307860 76 153 0
0.357007 -0.509615 -0.234019 76 153 0
-0.113819 0.075914 0.002038 0 127 127
-0.388951 -0.032608 -0.206434 255 0 0
0.371656 -0.083332 0.480915 0 127 127
0.310379 0.075914 -0.056055 0 127 127
-0.396266 0.021362 -0.285677 127 127 0
-0.375310 -0.726474 0.488973 76 0 153
0.036197 0.283118 -0.275092 0 0 255
0.301845 -0.273282 0.432035 0 127 127
-0.245649 0.293964 -0.265076 0 0 255
0.215540 0.075914 -0.180903 0 127 127
0.336624 -0.622196 -0.326286 76 153 0
-0.396266 -0.310831 0.503048 76 0 153
0.368747 0.280245 -0.223508 76 0 153
-0.326455 -0.064222 0.446662 76 0 153
0.170436 0.075914 0.024172 0 127 127
0.057359 0.035772 -0.191724 0 127 127
0.321362 0.046424 0.228974 0 255 0
-0.038031 -0.051492 0.464618 127 0 127
-0.015548 0.003529 0.512022 127 0 127
-0.118762 0.035772 -0.059454 0 127 127
-0.326455 -0.393426 -0.291317 153 0 76
0.371656 -0.489944 0.449280 0 127 127
-0.348716 -0.482307 -0.249304 153 0 76
-0.373577 0.036407 0.043397 255 0 0
0.250750 0.075914 -0.123197 0 127 127
-0.053280 0.278942 -0.265021 0 0 255
-0.227560 0.075914 0.429361 0 127 127
-0.326455 -0.393654 -0.258997 153 0 76
-0.334847 -0.036388 -0.185123 255 0 0
-0.385740 -0.522880 0.337006 153 76 0
0.310754 -0.043120 0.390062 0 255 0
0.364857 0.023571 0.225853 0 255 0
0.301845 -0.199726 -0.296667 76 153 0
0.020119 -0.498015 0.051354 76 0 153
0.000988 0.035772 0.189619 0 127 127
0.321164 -0.017074 -0.212128 0 255 0
-0.326455 0.529213 -0.253669 153 76 0
-0.326455 -0.195852 -0.234292 153 0 76
0.346969 -0.482307 -0.156700 153 0 76
-0.385854 -0.224996 0.418521 76 0 153
-0.074364 0.035772 -0.120074 0 127 127
0.058954 0.188643 -0.253613 0 0 255
-0.164548 0.075914 0.232761 0 127 127
0.129212 0.075914 -0.215263 0 127 127
0.326665 -0.062923 0.523237 0 127 127
-0.092111 0.035772 0.438253 0 127 127
0.310754 0.018606 -0.043164 0 255 0
-0.360433 0.051025 -0.211860 0 127 127
-0.369849 -0.482307 -0.109820 153 76 0
-0.385740 -0.539553 -0.050351 153 76 0
-0.145147 0.075914 0.158899 0 127 127
0.236482 0.035000 -0.286991 127 127 0
-0.268629 0.035772 -0.216042 0 127 127
-0.114149 0.036648 0.502619 127 0 127
-0.334847 -0.013278 0.016460 255 0 0
0.131864 0.035772 0.155880 0 127 127
0.343989 -0.025198 0.523237 0 255 0
-0.396266 -0.095418 0.458429 76 0 153
-0.388951 0.012705 0.127982 255 0 0
0.201479 0.035772 0.388227 0 127 127
-0.296005 0.035772 -0.169399 0 127 127
-0.208528 0.782928 -0.288774 255 0 0
-0.352328 -0.336021 0.523237 76 0 153
0.301845 0.452108 -0.285304 76 0 153
-0.396266 0.571387 -0.312497 153 76 0
0.285734 0.075914 0.076902 0 127 127
0.301845 -0.278092 -0.243491 76 153 0
-0.396266 -0.385498 0.423222 76 0 153
-0.396266 -0.075143 -0.237730 153 0 76
-0.150161 0.075914 0.134325 0 127 127
0.017406 0.253371 -0.295631 0 0 255
0.321362 0.057844 0.180978 0 127 127
-0.350178 -0.286056 0.418521 76 0 153
0.301845 0.498095 -0.288379 76 0 153
0.158991 0.233604 -0.294313 0 0 255
0.363623 0.008645 0.523237 0 255 0
-0.338617 -0.509329 -0.104522 153 76 0
0.048547 0.338091 -0.254268 204 51 127
0.371656 -0.191076 0.460493 0 127 127
-0.385310 -0.552118 0.222782 153 76 0
0.278781 -0.532920 0.080579 76 0 153
0.083410 0.075914 -0.201107 0 127 127
0.364857 -0.008819 -0.057343 0 255 0
0.269252 0.075914 0.355673 0 127 127
-0.034424 0.035772 -0.213201 0 127 127
-0.119201 0.035772 0.419598 0 127 127
0.085309 0.276007 -0.244882 0 0 255
-0.395673 0.143451 -0.301652 153 76 0
-0.385740 -0.510813 0.299187 153 76 0
0.151051 0.035772 -0.191587 0 127 127
-0.385740 -0.527535 0.124733 153 76 0
0.069984 0.286328 -0.275306 0 0 255
0.349209 0.357315 -0.228646 76 0 153
0.371656 -0.453596 -0.281043 76 153 0
-0.370115 0.005708 0.418521 255 0 0
-0.159844 0.035772 0.353800 0 127 127
-0.172721 0.274976 -0.297071 0 0 255
0.301845 -0.416610 0.465546 0 127 127
0.302932 0.699588 -0.251464 76 0 153
0.314062 -0.551847 -0.041433 153 0 76
-0.085971 0.035772 0.366966 0 127 127
0.301845 0.875057 -0.305627 76 0 153
-0.041639 0.075914 -0.079974 0 127 127
-0.235060 -0.502054 0.042413 76 0 153
