ply
format ascii 1.0
element vertex 630
property float x
property float y
property float z
property float nx
property float ny
property float nz
property uchar red
property uchar green
property uchar blue
property float opacity
end_header
-0.349608 -0.198592 -0.186043 -1.000000 0.000000 0.000000 128 63 0 1.000000
0.221620 -0.356812 0.556485 0.999631 0.027164 0.000000 128 63 0 1.000000
0.120355 0.009967 0.093660 -0.046799 -0.996180 0.073723 0 128 255 1.000000
0.089499 0.020705 0.269428 -0.036137 -0.998980 0.027087 0 128 255 1.000000
0.007632 -0.082558 -0.169309 0.000000 0.151130 -0.988514 0 128 255 1.000000
-0.059070 -0.172736 -0.042924 0.000000 0.997936 -0.064210 0 128 255 1.000000
0.131078 0.324547 -0.252861 0.222427 -0.116050 -0.968018 0 128 255 1.000000
-0.299516 -0.074364 0.147583 0.983182 -0.182252 0.011727 0 128 255 1.000000
-0.071346 0.001072 0.436194 0.000000 -0.997936 0.064210 0 128 255 1.000000
0.237776 -0.159637 0.244420 0.000000 -0.997936 0.064210 0 128 255 1.000000
-0.200827 0.004112 0.211542 -0.083112 0.995604 -0.043186 0 128 255 1.000000
0.101842 -0.112305 -0.273814 0.145303 -0.010674 -0.989330 0 128 255 1.000000
0.276461 0.643437 -0.403573 0.411185 -0.189743 -0.891585 0 128 255 1.000000
-0.157869 0.345134 -0.328188 -0.266996 -0.120580 -0.956124 0 128 255 1.000000
-0.229794 -0.149948 0.456970 0.000000 0.997936 -0.064210 0 128 255 1.000000
0.333596 -0.037864 -0.162080 0.925695 0.035584 0.376595 0 128 255 1.000000
0.067659 -0.173327 -0.055895 0.000000 -0.997936 0.064210 0 128 255 1.000000
0.099855 0.406739 -0.284203 -0.166552 0.141206 0.975870 0 128 255 1.000000
-0.273200 -0.575381 0.542405 0.999631 0.027164 0.000000 128 63 0 1.000000
0.326815 0.115999 -0.189158 -0.996050 -0.009364 0.088305 0 128 255 1.000000
0.147427 0.428628 -0.360494 -0.227963 0.143324 0.963063 0 128 255 1.000000
0.129775 0.234646 -0.310388 0.199908 -0.094586 -0.975239 0 128 255 1.000000
-0.291933 -0.047303 0.176283 0.925782 -0.377277 0.024275 0 128 255 1.000000
0.326552 -0.742117 -0.216096 0.000000 -0.198848 0.980030 128 63 0 1.000000
-0.137308 0.168379 -0.213970 0.254171 0.070887 0.964558 0 128 255 1.000000
-0.102455 -0.001607 0.377413 0.000000 -0.997936 0.064210 0 128 255 1.000000
-0.326323 0.699270 -0.352802 -0.800910 0.095683 0.591090 0 128 255 1.000000
-0.114702 0.424950 -0.363386 -0.197104 -0.143263 -0.969859 0 128 255 1.000000
-0.182020 -0.001143 0.027301 -0.073179 0.993344 -0.088956 0 128 255 1.000000
-0.079810 0.732928 -0.455458 -0.028406 -0.996868 0.073804 0 128 255 1.000000
0.176925 0.013552 0.477950 0.071017 0.997110 0.026992 0 128 255 1.000000
0.295967 -0.016136 -0.139035 -0.036479 0.025861 0.999000 0 128 255 1.000000
0.097596 0.009834 0.067575 0.037122 0.996037 -0.080818 0 128 255 1.000000
-0.242734 -0.007736 0.242964 0.000000 -0.997936 0.064210 0 128 255 1.000000
-0.270546 -0.306885 0.501130 0.000000 -0.027164 -0.999631 128 63 0 1.000000
-0.272407 0.343521 -0.283334 -0.425303 -0.112455 -0.898038 0 128 255 1.000000
-0.120704 -0.056355 -0.196539 -0.213343 -0.008886 -0.976937 0 128 255 1.000000
-0.117625 0.015392 0.217290 0.048157 -0.998005 0.040816 0 128 255 1.000000
-0.280876 -0.292883 0.566126 -0.999631 -0.027164 -0.000000 128 63 0 1.000000
-0.163283 -0.021963 -0.186314 0.286708 0.016600 0.957874 0 128 255 1.000000
-0.217242 0.188207 -0.189718 -0.391018 -0.071006 -0.917640 0 128 255 1.000000
0.236256 0.035060 -0.247098 -0.358039 0.039481 0.932871 0 128 255 1.000000
-0.286604 -0.046216 -0.050440 -0.885869 0.462978 -0.029789 0 128 255 1.000000
0.230529 -0.684654 0.534456 -0.999631 -0.027164 -0.000000 128 63 0 1.000000
-0.173055 -0.012743 0.133126 0.000000 0.997936 -0.064210 0 128 255 1.000000
0.019505 0.068350 -0.293940 -0.020403 0.054926 0.998282 0 128 255 1.000000
0.144340 0.019509 0.399027 -0.057089 -0.998353 -0.005591 0 128 255 1.000000
0.260105 -0.182000 0.571536 0.000000 0.027164 -0.999631 128 63 0 1.000000
-0.089994 -0.005520 0.291585 0.000000 -0.997936 0.064210 0 128 255 1.000000
0.254404 -0.438847 0.564557 0.000000 -0.027164 0.999631 128 63 0 1.000000
-0.081019 0.021689 0.345178 -0.034300 0.999375 -0.008584 0 128 255 1.000000
0.260645 -0.725389 0.512503 0.000000 -0.027164 -0.999631 128 63 0 1.000000
-0.029436 0.714281 -0.424677 0.060718 0.228894 0.971556 0 128 255 1.000000
-0.313302 0.544452 -0.279629 -0.764589 0.096112 0.637311 0 128 255 1.000000
0.297195 -0.144149 0.340546 -0.915808 0.400788 -0.025787 0 128 255 1.000000
0.170202 0.604840 -0.346636 -0.280325 0.195875 0.939708 0 128 255 1.000000
0.147128 -0.160761 0.219772 0.000000 -0.997936 0.064210 0 128 255 1.000000
-0.237483 -0.665723 0.558392 0.000000 -0.027164 0.999631 128 63 0 1.000000
0.053600 -0.164327 0.141538 0.000000 0.997936 -0.064210 0 128 255 1.000000
-0.315837 0.018137 -0.157320 -0.777210 0.044394 0.627673 0 128 255 1.000000
0.116182 0.586579 -0.351461 -0.189691 0.193720 0.962543 0 128 255 1.000000
-0.138937 0.688608 -0.469114 -0.224911 -0.204934 -0.952585 0 128 255 1.000000
0.277389 -0.311568 0.501258 0.000000 -0.027164 -0.999631 128 63 0 1.000000
0.230690 -0.011423 -0.041727 -0.088619 -0.989917 0.110502 0 128 255 1.000000
0.278763 -0.620149 0.533463 0.999631 -0.027164 -0.000000 128 63 0 1.000000
0.336063 0.723880 -0.363864 0.754815 0.163633 0.635199 0 128 255 1.000000
0.325168 0.514640 -0.317485 0.813067 -0.110047 -0.571675 0 128 255 1.000000
-0.300820 -0.176437 -0.151053 0.000000 1.000000 0.000000 128 63 0 1.000000
-0.193621 -0.150863 0.436902 0.000000 -0.997936 0.064210 0 128 255 1.000000
-0.147605 -0.056700 -0.190213 -0.257936 -0.007740 -0.966131 0 128 255 1.000000
-0.335394 -0.634358 -0.195064 0.000000 0.184194 -0.982890 128 63 0 1.000000
0.048911 0.000112 -0.004714 0.018957 0.994973 -0.098331 0 128 255 1.000000
0.220586 0.608000 -0.410416 0.334220 -0.185688 -0.924022 0 128 255 1.000000
-0.196043 0.443387 -0.265934 -0.356283 -0.144785 -0.923092 0 128 255 1.000000
-0.273735 -0.516691 -0.206652 -1.000000 0.000000 0.000000 128 63 0 1.000000
-0.082726 0.635799 -0.453774 0.140826 0.200067 0.969609 0 128 255 1.000000
0.061313 0.719392 -0.488315 -0.072734 -0.305163 0.949519 0 128 255 1.000000
-0.318078 -0.056306 -0.195585 0.723772 -0.000813 0.690039 0 128 255 1.000000
-0.025422 0.450175 -0.305753 -0.057641 -0.155597 -0.986137 0 128 255 1.000000
-0.195670 -0.004233 0.319819 0.000000 -0.997936 0.064210 0 128 255 1.000000
-0.088863 0.064499 -0.286263 -0.152525 -0.052713 -0.986893 0 128 255 1.000000
-0.094099 0.699269 -0.409818 -0.169391 -0.219857 -0.960713 0 128 255 1.000000
-0.053922 0.018700 -0.285874 -0.096127 -0.041981 -0.994483 0 128 255 1.000000
-0.296947 -0.213955 -0.128802 0.000000 0.127027 -0.991899 128 63 0 1.000000
0.299617 -0.063488 -0.124911 -0.933035 -0.359042 0.023101 0 128 255 1.000000
0.326076 0.421831 -0.276778 -0.937110 0.059371 0.343949 0 128 255 1.000000
0.138575 0.017823 0.302044 -0.056166 -0.998252 0.018376 0 128 255 1.000000
0.170597 -0.145556 0.553318 0.000000 0.997936 -0.064210 0 128 255 1.000000
0.107032 -0.156215 0.319505 0.000000 -0.997936 0.064210 0 128 255 1.000000
0.154524 -0.172405 -0.035666 0.000000 0.997936 -0.064210 0 128 255 1.000000
0.007165 0.682258 -0.409757 0.000735 -0.219418 -0.975631 0 128 255 1.000000
-0.124039 0.599178 -0.352730 -0.226012 -0.196401 -0.954120 0 128 255 1.000000
-0.143332 0.273109 -0.233070 -0.267231 -0.100009 -0.958429 0 128 255 1.000000
-0.269784 -0.094715 0.587412 0.000000 -0.045539 -0.998963 0 128 255 1.000000
-0.349608 -0.706145 -0.236859 1.000000 0.000000 0.000000 128 63 0 1.000000
0.254506 -0.618744 0.509605 0.000000 0.027164 0.999631 128 63 0 1.000000
0.040249 -0.031642 -0.144565 0.000000 -0.479086 0.877768 0 128 255 1.000000
-0.130903 -0.009234 0.210101 0.000000 0.997936 -0.064210 0 128 255 1.000000
-0.221380 -0.597474 0.558316 0.999631 -0.027164 -0.000000 128 63 0 1.000000
-0.099082 0.670567 -0.393586 0.179446 0.215203 0.959941 0 128 255 1.000000
-0.049590 0.016424 0.134910 -0.019346 0.997941 -0.061150 0 128 255 1.000000
-0.159487 0.422953 -0.351912 -0.268570 -0.140433 -0.952968 0 128 255 1.000000
-0.019918 0.022479 0.268611 0.009268 -0.999561 0.028148 0 128 255 1.000000
-0.312840 0.023747 -0.203093 0.702880 0.018005 0.711081 0 128 255 1.000000
-0.046259 -0.009915 -0.284144 0.083406 0.034952 0.995903 0 128 255 1.000000
0.319512 -0.466561 -0.227516 0.000000 0.094398 -0.995535 128 63 0 1.000000
-0.281856 -0.256850 0.560041 -0.999631 -0.027164 -0.000000 128 63 0 1.000000
-0.220932 -0.580998 0.534177 -0.999631 0.027164 0.000000 128 63 0 1.000000
0.077847 0.649794 -0.387795 -0.121557 0.213345 0.969385 0 128 255 1.000000
0.075226 0.487940 -0.316286 -0.121564 0.165897 0.978622 0 128 255 1.000000
-0.258248 0.209110 -0.257628 -0.412629 -0.079850 -0.907393 0 128 255 1.000000
0.272548 -0.403213 -0.189525 -1.000000 0.000000 0.000000 128 63 0 1.000000
-0.078988 -0.167192 0.078691 0.000000 -0.997936 0.064210 0 128 255 1.000000
-0.169412 0.734161 -0.425678 -0.175310 -0.914199 -0.365385 0 128 255 1.000000
0.348421 -0.492714 -0.207518 -1.000000 0.000000 0.000000 128 63 0 1.000000
0.035884 0.580134 -0.358308 0.050843 -0.194348 -0.979614 0 128 255 1.000000
-0.300101 -0.097264 -0.102780 -1.000000 0.000000 0.000000 0 128 255 1.000000
-0.090405 0.014091 0.471222 0.039653 -0.998947 -0.023068 0 128 255 1.000000
0.200477 -0.125401 0.581462 0.000000 0.252722 -0.967539 0 128 255 1.000000
0.129956 0.730663 -0.464385 0.087296 0.757093 -0.647448 0 128 255 1.000000
-0.109366 0.315017 -0.252080 -0.207829 -0.113775 -0.971526 0 128 255 1.000000
0.198837 0.070263 -0.185831 0.330851 -0.040825 -0.942800 0 128 255 1.000000
0.041531 0.586832 -0.437408 -0.055794 0.188455 0.980496 0 128 255 1.000000
-0.326722 -0.097887 -0.155213 0.897826 -0.035612 -0.438907 0 128 255 1.000000
0.292787 0.095865 -0.155595 -0.030447 0.062186 0.997600 0 128 255 1.000000
-0.076694 0.285700 -0.250341 -0.149773 -0.106673 -0.982949 0 128 255 1.000000
-0.300101 -0.083095 0.336419 1.000000 0.000000 0.000000 0 128 255 1.000000
0.239881 -0.155393 0.337523 0.000000 0.997936 -0.064210 0 128 255 1.000000
0.292769 0.443338 -0.311749 0.429995 -0.137264 -0.892336 0 128 255 1.000000
-0.188625 -0.130777 -0.168554 0.000000 -0.045539 -0.998963 0 128 255 1.000000
-0.272467 0.112458 -0.234550 -0.420451 -0.055514 -0.905616 0 128 255 1.000000
0.345763 -0.703531 -0.257789 0.000000 -0.158664 0.987333 128 63 0 1.000000
-0.135225 -0.018149 0.014533 0.000000 -0.997936 0.064210 0 128 255 1.000000
-0.233897 0.221917 -0.271228 0.384484 0.084552 0.919251 0 128 255 1.000000
-0.180553 0.565650 -0.320916 -0.323435 -0.182107 -0.928562 0 128 255 1.000000
0.227651 0.288462 -0.211772 0.389097 -0.099062 -0.915855 0 128 255 1.000000
-0.273735 -0.294769 -0.168918 -1.000000 0.000000 0.000000 128 63 0 1.000000
0.284972 -0.391670 0.560208 0.999631 -0.027164 -0.000000 128 63 0 1.000000
-0.161481 0.462247 -0.365345 0.270606 0.150512 0.950852 0 128 255 1.000000
-0.198261 0.131512 -0.268505 0.326481 0.064677 0.942988 0 128 255 1.000000
0.125011 -0.010065 0.191879 0.000000 0.997936 -0.064210 0 128 255 1.000000
-0.258486 -0.400385 0.503671 0.000000 0.027164 0.999631 128 63 0 1.000000
0.121934 0.280186 -0.243001 0.206204 -0.103824 -0.972985 0 128 255 1.000000
0.222898 0.448397 -0.344672 -0.346003 0.143609 0.927178 0 128 255 1.000000
0.208923 0.094845 -0.264349 -0.320289 0.055804 0.945675 0 128 255 1.000000
0.060647 -0.157936 0.281738 0.000000 -0.997936 0.064210 0 128 255 1.000000
-0.312779 0.462143 -0.252922 0.860592 -0.064825 -0.505153 0 128 255 1.000000
0.327435 -0.398697 -0.154873 0.000000 0.152149 -0.988358 128 63 0 1.000000
0.179835 -0.099358 -0.257597 0.263537 -0.010075 -0.964597 0 128 255 1.000000
-0.296281 -0.043843 0.522506 -0.958389 0.284875 -0.018329 0 128 255 1.000000
0.290801 -0.631922 -0.246977 0.000000 0.139243 -0.990258 128 63 0 1.000000
-0.074329 0.080316 -0.214062 -0.141546 -0.048623 -0.988737 0 128 255 1.000000
0.265433 -0.174146 -0.073865 0.000000 -0.997936 0.064210 0 128 255 1.000000
-0.106222 -0.015019 0.564337 0.000000 0.469111 0.883139 0 128 255 1.000000
-0.148157 -0.021720 -0.063784 0.000000 0.997936 -0.064210 0 128 255 1.000000
0.000247 -0.144778 0.570399 0.000000 -0.997936 0.064210 0 128 255 1.000000
0.293124 -0.027446 0.349722 -0.883810 -0.466881 0.030040 0 128 255 1.000000
-0.264006 -0.015332 0.050347 0.100779 -0.991767 0.079010 0 128 255 1.000000
-0.046401 -0.017821 0.021740 0.000000 -0.997936 0.064210 0 128 255 1.000000
-0.134287 0.041564 -0.274783 0.223226 0.045487 0.973705 0 128 255 1.000000
0.330818 -0.750843 -0.265662 0.000000 -0.171114 0.985251 128 63 0 1.000000
0.031578 0.025686 -0.288699 -0.039203 0.044125 0.998257 0 128 255 1.000000
-0.045603 -0.014235 -0.087280 -0.020141 0.992521 -0.120402 0 128 255 1.000000
0.165916 0.000900 0.008489 -0.065005 -0.993288 0.095675 0 128 255 1.000000
0.112111 0.643183 -0.455310 -0.165468 0.200482 0.965623 0 128 255 1.000000
-0.211198 -0.016167 0.058018 0.000000 0.997936 -0.064210 0 128 255 1.000000
0.019103 -0.000552 0.400567 0.000000 0.997936 -0.064210 0 128 255 1.000000
-0.275016 -0.161051 0.213402 0.000000 0.997936 -0.064210 0 128 255 1.000000
-0.252306 -0.637582 0.510117 0.000000 -0.027164 -0.999631 128 63 0 1.000000
0.071998 0.022581 0.307088 -0.029271 -0.999423 0.017229 0 128 255 1.000000
-0.125000 0.482302 -0.381544 -0.212367 -0.157730 -0.964376 0 128 255 1.000000
0.179143 0.532022 -0.390787 0.274923 -0.168542 -0.946579 0 128 255 1.000000
-0.003694 -0.053238 -0.158700 0.000000 0.344321 -0.938852 0 128 255 1.000000
-0.254551 -0.281821 0.500449 0.000000 0.027164 0.999631 128 63 0 1.000000
-0.222950 -0.162402 -0.210626 0.000000 -0.971410 0.237410 0 128 255 1.000000
-0.284514 0.226486 -0.248512 0.433158 0.082839 0.897503 0 128 255 1.000000
0.257451 -0.657625 0.558612 0.000000 0.027164 -0.999631 128 63 0 1.000000
0.051149 0.110022 -0.298324 -0.071575 0.065168 0.995304 0 128 255 1.000000
0.329062 0.060266 -0.181890 -0.996194 -0.016466 0.085589 0 128 255 1.000000
-0.181048 -0.014763 0.088827 0.000000 0.997936 -0.064210 0 128 255 1.000000
-0.052522 -0.152218 0.407187 0.000000 -0.997936 0.064210 0 128 255 1.000000
-0.280958 0.510450 -0.335897 0.429865 0.154323 0.889607 0 128 255 1.000000
-0.003119 0.638380 -0.386541 0.016982 0.212232 0.977072 0 128 255 1.000000
0.274853 0.418801 -0.227636 -0.435461 0.132765 0.890363 0 128 255 1.000000
0.175936 -0.148000 0.499718 0.000000 0.997936 -0.064210 0 128 255 1.000000
-0.269508 -0.711248 0.525402 0.999631 0.027164 0.000000 128 63 0 1.000000
0.259914 -0.003201 0.268257 -0.109592 -0.993794 0.019039 0 128 255 1.000000
-0.225437 -0.169119 0.036418 0.000000 0.997936 -0.064210 0 128 255 1.000000
-0.226710 0.268924 -0.202103 0.406936 0.092644 0.908747 0 128 255 1.000000
0.080982 -0.011951 0.150515 0.000000 -0.997936 0.064210 0 128 255 1.000000
-0.204938 -0.020462 -0.036193 0.000000 0.997936 -0.064210 0 128 255 1.000000
0.275237 -0.749912 0.540178 -0.999631 0.027164 0.000000 128 63 0 1.000000
-0.303599 0.126034 -0.164157 -0.542018 0.065725 0.837793 0 128 255 1.000000
0.039609 -0.150554 0.443690 0.000000 0.997936 -0.064210 0 128 255 1.000000
0.195807 0.354757 -0.323535 -0.305660 0.121548 0.944351 0 128 255 1.000000
-0.282937 0.450999 -0.232082 0.005277 0.149908 0.988686 0 128 255 1.000000
-0.102529 0.553198 -0.336646 -0.191257 -0.183712 -0.964194 0 128 255 1.000000
-0.307337 0.369475 -0.271586 0.708734 0.095300 0.699010 0 128 255 1.000000
0.069460 0.069553 -0.215056 0.109715 -0.046003 -0.992898 0 128 255 1.000000
-0.205115 0.265198 -0.292232 -0.340970 -0.097423 -0.935012 0 128 255 1.000000
-0.191811 0.514020 -0.294703 -0.345687 -0.165798 -0.923586 0 128 255 1.000000
0.072575 -0.154325 0.360958 0.000000 -0.997936 0.064210 0 128 255 1.000000
0.117910 -0.088037 0.586983 0.000000 0.045539 0.998963 0 128 255 1.000000
0.030865 -0.154400 0.359317 0.000000 0.997936 -0.064210 0 128 255 1.000000
-0.047625 -0.063379 -0.163432 0.000000 0.276032 -0.961149 0 128 255 1.000000
0.186064 0.011208 0.291436 0.074850 0.996966 -0.021342 0 128 255 1.000000
-0.041182 0.478436 -0.315460 0.085255 0.163622 0.982832 0 128 255 1.000000
0.159083 0.035441 -0.195171 0.261800 -0.033380 -0.964545 0 128 255 1.000000
-0.039447 0.608123 -0.446374 0.073168 0.193981 0.978273 0 128 255 1.000000
0.043908 0.005618 0.535918 0.000000 0.997936 -0.064210 0 128 255 1.000000
0.305259 -0.075307 0.019791 0.975201 0.220865 -0.014211 0 128 255 1.000000
-0.315299 0.156135 -0.184757 0.983373 -0.024426 -0.179948 0 128 255 1.000000
0.281576 0.538617 -0.270537 -0.437873 0.166897 0.883409 0 128 255 1.000000
-0.106928 -0.129608 -0.168630 0.000000 0.045539 0.998963 0 128 255 1.000000
-0.282346 -0.126027 0.581228 0.000000 -0.256849 0.966451 0 128 255 1.000000
0.136922 -0.102397 -0.195536 -0.215356 -0.001920 0.976534 0 128 255 1.000000
0.262296 -0.017734 -0.039741 -0.112947 -0.989037 0.095123 0 128 255 1.000000
0.334414 0.673817 -0.342646 -0.812138 -0.090668 -0.576378 0 128 255 1.000000
0.127809 -0.162000 0.192592 0.000000 0.997936 -0.064210 0 128 255 1.000000
-0.072259 -0.001953 0.369817 0.000000 0.997936 -0.064210 0 128 255 1.000000
0.348421 -0.260054 -0.198400 1.000000 0.000000 0.000000 128 63 0 1.000000
-0.261701 -0.036620 0.577290 0.000000 -0.319476 -0.947594 0 128 255 1.000000
0.089899 -0.002901 0.349038 0.000000 0.997936 -0.064210 0 128 255 1.000000
0.253013 -0.172091 -0.028781 0.000000 -0.997936 0.064210 0 128 255 1.000000
0.260507 -0.563750 0.508110 0.000000 -0.027164 -0.999631 128 63 0 1.000000
0.020383 -0.158355 0.272543 0.000000 0.997936 -0.064210 0 128 255 1.000000
0.129488 -0.150801 -0.162788 0.000000 0.286504 0.958079 0 128 255 1.000000
0.216665 -0.166365 0.096839 0.000000 0.997936 -0.064210 0 128 255 1.000000
0.241209 0.005170 0.368353 0.097180 0.995266 -0.001082 0 128 255 1.000000
0.109117 0.549587 -0.414214 -0.163888 0.176733 0.970519 0 128 255 1.000000
0.325296 -0.179062 -0.194193 0.000000 -0.999300 0.037420 128 63 0 1.000000
-0.273735 -0.348493 -0.172091 1.000000 0.000000 0.000000 128 63 0 1.000000
0.052002 0.212376 -0.238742 -0.081065 0.086747 0.992927 0 128 255 1.000000
0.189228 -0.150736 0.439698 0.000000 -0.997936 0.064210 0 128 255 1.000000
-0.282806 -0.175117 -0.095163 0.000000 -0.997936 0.064210 0 128 255 1.000000
0.233981 -0.004369 0.316837 0.000000 0.997936 -0.064210 0 128 255 1.000000
0.244266 0.585167 -0.390404 -0.371761 0.177616 0.911178 0 128 255 1.000000
0.160725 -0.052412 -0.264736 -0.237934 0.021714 0.971039 0 128 255 1.000000
0.204920 0.002444 0.466285 0.000000 0.997936 -0.064210 0 128 255 1.000000
-0.254358 -0.162811 -0.214440 0.000000 0.971410 -0.237410 0 128 255 1.000000
-0.288074 -0.027921 -0.213515 0.425102 0.020763 0.904907 0 128 255 1.000000
-0.083974 -0.054972 -0.276588 0.141148 0.022928 0.989723 0 128 255 1.000000
-0.145358 -0.144877 0.568209 0.000000 -0.997936 0.064210 0 128 255 1.000000
-0.340455 -0.369472 -0.219624 0.000000 0.068068 -0.997681 128 63 0 1.000000
-0.228450 0.367549 -0.310532 0.377143 0.121402 0.918164 0 128 255 1.000000
-0.155300 -0.150231 0.450769 0.000000 0.997936 -0.064210 0 128 255 1.000000
0.285069 -0.172184 -0.151058 0.000000 -0.410237 -0.911979 0 128 255 1.000000
-0.003035 0.412611 -0.293608 0.017574 0.144780 0.989308 0 128 255 1.000000
-0.123057 -0.166848 0.086242 0.000000 -0.997936 0.064210 0 128 255 1.000000
0.118694 -0.015819 -0.094917 0.044350 0.991303 -0.123903 0 128 255 1.000000
-0.006599 0.474581 -0.393175 0.021601 0.158868 0.987063 0 128 255 1.000000
-0.276206 -0.464742 0.562716 -0.999631 -0.027164 -0.000000 128 63 0 1.000000
-0.140476 0.512632 -0.389877 0.235947 0.164899 0.957673 0 128 255 1.000000
0.260046 0.337305 -0.209843 0.423810 -0.110639 -0.898968 0 128 255 1.000000
0.184544 -0.021494 -0.058845 0.000000 -0.997936 0.064210 0 128 255 1.000000
-0.041428 -0.051751 -0.281655 0.075118 0.024501 0.996874 0 128 255 1.000000
-0.300101 -0.126481 -0.084324 -1.000000 0.000000 0.000000 0 128 255 1.000000
-0.152375 -0.174034 -0.071407 0.000000 -0.997936 0.064210 0 128 255 1.000000
0.303339 -0.062538 0.136215 -0.960758 -0.276814 0.017811 0 128 255 1.000000
-0.298202 -0.147254 -0.134881 0.053224 0.011262 0.998519 0 128 255 1.000000
0.306881 -0.079284 0.453070 -1.000000 0.000000 0.000000 0 128 255 1.000000
-0.052453 0.697370 -0.414325 -0.100015 -0.221035 -0.970124 0 128 255 1.000000
0.329702 -0.414479 -0.222927 0.000000 -0.080273 0.996773 128 63 0 1.000000
-0.245660 0.559990 -0.291120 0.419143 0.174640 0.890966 0 128 255 1.000000
-0.131056 0.146482 -0.289991 0.221827 0.071792 0.972440 0 128 255 1.000000
-0.258264 -0.159535 0.246666 0.000000 0.997936 -0.064210 0 128 255 1.000000
-0.244571 0.000999 0.434594 0.000000 0.997936 -0.064210 0 128 255 1.000000
-0.095645 0.011999 0.098294 -0.038429 0.996743 -0.070902 0 128 255 1.000000
0.094613 0.681103 -0.402000 0.148417 -0.217612 -0.964685 0 128 255 1.000000
-0.349608 -0.124447 -0.140750 1.000000 0.000000 0.000000 0 128 255 1.000000
-0.156677 -0.157075 0.300629 0.000000 -0.997936 0.064210 0 128 255 1.000000
0.050168 0.732261 -0.453210 0.033331 -0.971407 -0.235067 0 128 255 1.000000
-0.101550 -0.155248 0.340710 0.000000 -0.997936 0.064210 0 128 255 1.000000
0.237202 -0.164572 0.136164 0.000000 0.997936 -0.064210 0 128 255 1.000000
0.126036 -0.012454 0.139466 0.000000 -0.997936 0.064210 0 128 255 1.000000
-0.290242 -0.052322 -0.021269 0.912993 -0.407133 0.026196 0 128 255 1.000000
0.281289 -0.368687 -0.150273 0.000000 0.148068 -0.988977 128 63 0 1.000000
0.085113 0.180045 -0.228906 -0.139692 0.076791 0.987213 0 128 255 1.000000
-0.247282 -0.005399 0.294239 0.000000 0.997936 -0.064210 0 128 255 1.000000
0.306881 -0.109512 0.044860 -1.000000 0.000000 0.000000 0 128 255 1.000000
0.143995 0.008621 0.522639 0.065173 0.997007 0.041598 0 128 255 1.000000
-0.014490 -0.055077 -0.210032 0.035465 0.011430 0.999306 0 128 255 1.000000
0.150886 0.538487 -0.400919 0.230359 -0.171900 -0.957802 0 128 255 1.000000
0.040690 -0.139750 -0.166908 0.000000 -0.213450 -0.976954 0 128 255 1.000000
0.027266 0.605791 -0.370750 0.035308 -0.202260 -0.978695 0 128 255 1.000000
-0.113224 -0.149525 0.466265 0.000000 0.997936 -0.064210 0 128 255 1.000000
0.272548 -0.160066 -0.127817 1.000000 0.000000 0.000000 0 128 255 1.000000
0.272548 -0.763605 -0.266085 1.000000 0.000000 0.000000 128 63 0 1.000000
-0.324828 0.722012 -0.404484 0.721686 -0.138356 0.678253 0 128 255 1.000000
-0.108981 0.395560 -0.355260 -0.188236 -0.135920 -0.972673 0 128 255 1.000000
-0.052435 -0.147975 0.500267 0.000000 0.997936 -0.064210 0 128 255 1.000000
-0.084636 0.226701 -0.236147 -0.163257 -0.089630 -0.982504 0 128 255 1.000000
-0.122537 -0.014104 0.103287 0.000000 -0.997936 0.064210 0 128 255 1.000000
-0.111114 -0.012959 0.128398 0.000000 -0.997936 0.064210 0 128 255 1.000000
-0.085706 0.505360 -0.319884 -0.163463 -0.170168 -0.971763 0 128 255 1.000000
0.255975 -0.157375 0.294057 0.000000 -0.997936 0.064210 0 128 255 1.000000
0.153346 0.612988 -0.432538 0.230960 -0.191626 -0.953906 0 128 255 1.000000
0.259694 -0.043794 -0.154663 0.408080 -0.005927 -0.912927 0 128 255 1.000000
-0.349608 -0.095426 -0.168325 1.000000 0.000000 0.000000 0 128 255 1.000000
-0.141963 0.007304 0.095988 -0.058207 0.995685 -0.072270 0 128 255 1.000000
-0.300101 -0.071098 0.523544 -1.000000 0.000000 0.000000 0 128 255 1.000000
-0.149283 0.232740 -0.222404 0.276835 0.088270 0.956855 0 128 255 1.000000
-0.021334 0.331926 -0.268263 0.050540 0.121222 0.991338 0 128 255 1.000000
-0.030041 -0.008906 0.217292 0.000000 -0.997936 0.064210 0 128 255 1.000000
0.024833 -0.089834 -0.209235 0.030261 -0.001854 -0.999540 0 128 255 1.000000
-0.190791 -0.174804 -0.088286 0.000000 0.997936 -0.064210 0 128 255 1.000000
-0.310261 0.181368 -0.223497 0.781637 0.045680 0.622059 0 128 255 1.000000
-0.294379 -0.145655 0.082053 -0.944468 -0.327924 0.021099 0 128 255 1.000000
-0.034625 -0.144668 -0.279140 0.062943 0.007379 0.997990 0 128 255 1.000000
0.285459 0.668818 -0.331240 0.434332 -0.202366 -0.877726 0 128 255 1.000000
0.255840 -0.018892 -0.001755 0.000000 -0.997936 0.064210 0 128 255 1.000000
0.247073 -0.532993 0.561999 0.000000 0.027164 -0.999631 128 63 0 1.000000
-0.052433 -0.032959 -0.145647 0.000000 -0.474204 0.880415 0 128 255 1.000000
0.000217 0.010554 0.073815 0.002896 -0.996808 0.079789 0 128 255 1.000000
-0.319588 -0.635504 -0.247459 0.000000 -0.140214 0.990121 128 63 0 1.000000
-0.286534 0.626198 -0.383529 -0.429862 -0.184245 -0.883896 0 128 255 1.000000
-0.290092 -0.395348 -0.154358 0.000000 -0.151694 0.988428 128 63 0 1.000000
0.283872 -0.067381 -0.220593 -0.409279 0.011955 0.912331 0 128 255 1.000000
0.173536 0.272599 -0.308282 0.270351 -0.102074 -0.957335 0 128 255 1.000000
-0.295771 -0.061528 0.092453 -0.954030 0.299091 -0.019244 0 128 255 1.000000
0.283869 -0.363973 0.502682 0.000000 0.027164 0.999631 128 63 0 1.000000
-0.196960 0.000583 0.119966 0.082019 -0.994359 0.067251 0 128 255 1.000000
-0.311571 0.126773 -0.213629 0.783188 0.034092 0.620850 0 128 255 1.000000
-0.015991 -0.147723 0.505782 0.000000 -0.997936 0.064210 0 128 255 1.000000
0.109755 0.465036 -0.302661 0.182906 -0.157830 -0.970379 0 128 255 1.000000
0.287613 0.059861 -0.226959 0.419462 -0.042647 -0.906770 0 128 255 1.000000
-0.258606 -0.686355 0.557831 0.000000 0.027164 -0.999631 128 63 0 1.000000
-0.256967 0.721987 -0.367554 -0.418929 -0.232996 -0.877617 0 128 255 1.000000
-0.283566 -0.169944 0.497409 0.000000 0.027164 0.999631 128 63 0 1.000000
0.153909 -0.152505 0.400882 0.000000 0.997936 -0.064210 0 128 255 1.000000
-0.320382 0.667853 -0.334007 0.701577 -0.118937 -0.702597 0 128 255 1.000000
0.155955 -0.156840 -0.192794 -0.241439 -0.010021 0.970364 0 128 255 1.000000
-0.349608 -0.751984 -0.249734 1.000000 0.000000 0.000000 128 63 0 1.000000
0.143524 -0.145009 0.565330 0.000000 0.997936 -0.064210 0 128 255 1.000000
-0.078504 0.268658 -0.324533 0.139244 0.104453 0.984734 0 128 255 1.000000
0.251051 -0.143858 0.498836 0.000000 1.000000 0.000000 128 63 0 1.000000
-0.183159 0.380015 -0.331164 0.306513 0.127935 0.943230 0 128 255 1.000000
0.237041 -0.591427 0.508862 0.000000 0.027164 0.999631 128 63 0 1.000000
-0.297682 -0.124928 0.292028 0.969563 0.244338 -0.015722 0 128 255 1.000000
0.249516 0.209148 -0.267540 -0.387461 0.081240 0.918300 0 128 255 1.000000
0.155719 -0.013858 0.108682 0.000000 0.997936 -0.064210 0 128 255 1.000000
0.241442 0.455924 -0.257612 -0.407842 0.145413 0.901399 0 128 255 1.000000
0.276049 0.724785 -0.366323 -0.422156 0.281506 0.861707 0 128 255 1.000000
0.217417 -0.202131 0.551230 0.999631 0.027164 0.000000 128 63 0 1.000000
-0.250881 -0.153901 0.370266 0.000000 0.997936 -0.064210 0 128 255 1.000000
-0.273735 -0.724640 -0.227349 1.000000 0.000000 0.000000 128 63 0 1.000000
-0.239413 0.451141 -0.333606 -0.391793 -0.141801 -0.909060 0 128 255 1.000000
0.222041 -0.372282 0.528954 -0.999631 -0.027164 -0.000000 128 63 0 1.000000
-0.007336 0.519505 -0.410340 -0.022542 -0.170711 -0.985063 0 128 255 1.000000
-0.166416 -0.002962 0.347684 0.000000 -0.997936 0.064210 0 128 255 1.000000
-0.082272 0.453289 -0.300850 -0.158564 -0.154983 -0.975109 0 128 255 1.000000
-0.219085 -0.513017 0.543025 0.999631 -0.027164 -0.000000 128 63 0 1.000000
-0.249057 -0.138512 -0.167219 0.000000 -0.205242 -0.978711 0 128 255 1.000000
0.306881 -0.092120 -0.094200 -1.000000 0.000000 0.000000 0 128 255 1.000000
0.312149 -0.289646 -0.215073 0.000000 0.046420 -0.998922 128 63 0 1.000000
-0.248252 -0.537534 0.561875 0.000000 0.027164 -0.999631 128 63 0 1.000000
0.288026 -0.040143 -0.119654 -0.845841 -0.532334 0.034252 0 128 255 1.000000
-0.000529 -0.149140 0.474691 0.000000 0.997936 -0.064210 0 128 255 1.000000
-0.035402 0.371399 -0.279113 -0.075797 -0.132427 -0.988290 0 128 255 1.000000
-0.027837 -0.154238 0.362858 0.000000 -0.997936 0.064210 0 128 255 1.000000
-0.266667 -0.815785 0.536882 0.999631 0.027164 0.000000 128 63 0 1.000000
0.299855 -0.046124 0.270145 0.934882 0.354226 -0.022791 0 128 255 1.000000
0.296958 -0.178841 -0.188303 0.000000 -0.999300 0.037420 128 63 0 1.000000
-0.148040 0.003630 0.492304 0.000000 0.997936 -0.064210 0 128 255 1.000000
0.166861 0.527621 -0.313213 -0.279485 0.172934 0.944448 0 128 255 1.000000
-0.156908 0.305273 -0.317848 -0.265417 -0.110516 -0.957779 0 128 255 1.000000
0.322411 0.398845 -0.236836 -0.916336 -0.045900 -0.397771 0 128 255 1.000000
0.129699 -0.176743 -0.130835 0.000000 -0.997936 0.064210 0 128 255 1.000000
0.286908 -0.084029 -0.141222 -0.426025 -0.005727 0.904693 0 128 255 1.000000
0.261244 0.003631 0.492311 0.000000 0.997936 -0.064210 0 128 255 1.000000
0.314179 0.453674 -0.246537 -0.565947 -0.111939 -0.816807 0 128 255 1.000000
0.134569 0.702692 -0.405643 0.213904 -0.219125 -0.951961 0 128 255 1.000000
-0.201970 -0.144965 0.566292 0.000000 0.997936 -0.064210 0 128 255 1.000000
0.272548 -0.318087 -0.150814 -1.000000 0.000000 0.000000 128 63 0 1.000000
-0.227296 -0.815167 0.537428 0.999631 -0.027164 -0.000000 128 63 0 1.000000
-0.233139 -0.017112 0.037291 0.000000 0.997936 -0.064210 0 128 255 1.000000
0.298363 -0.153453 0.075173 -0.923049 0.383889 -0.024700 0 128 255 1.000000
-0.213629 -0.312249 0.510116 0.999631 -0.027164 -0.000000 128 63 0 1.000000
0.306712 0.381353 -0.276181 0.562905 -0.115880 -0.818358 0 128 255 1.000000
-0.226120 0.722584 -0.448771 -0.311988 0.269853 -0.910957 0 128 255 1.000000
0.011444 0.184929 -0.312798 -0.007623 0.084385 0.996404 0 128 255 1.000000
0.120272 -0.064758 -0.199247 -0.190649 0.006955 0.981634 0 128 255 1.000000
0.073562 0.335695 -0.344534 -0.109357 0.122070 0.986479 0 128 255 1.000000
-0.226555 -0.489963 0.506105 0.000000 0.027164 0.999631 128 63 0 1.000000
0.262441 -0.027680 0.572699 0.000000 0.379994 0.924989 0 128 255 1.000000
0.164278 -0.000966 0.391489 0.000000 -0.997936 0.064210 0 128 255 1.000000
0.076194 0.626293 -0.376498 0.119533 -0.207472 -0.970910 0 128 255 1.000000
-0.008173 0.667539 -0.475726 -0.023093 -0.205787 -0.978324 0 128 255 1.000000
-0.055961 -0.079871 0.586458 0.000000 -0.045539 -0.998963 0 128 255 1.000000
0.276415 -0.740829 -0.215838 0.000000 0.198673 -0.980066 128 63 0 1.000000
-0.273735 -0.337990 -0.197933 -1.000000 0.000000 0.000000 128 63 0 1.000000
0.019025 -0.145699 0.550182 0.000000 0.997936 -0.064210 0 128 255 1.000000
-0.124435 -0.010972 0.171981 0.000000 -0.997936 0.064210 0 128 255 1.000000
-0.312473 -0.193135 -0.126176 0.000000 -0.124293 0.992246 128 63 0 1.000000
0.058402 0.254612 -0.325701 -0.084481 0.101661 0.991226 0 128 255 1.000000
0.324760 -0.151076 -0.211236 0.000000 0.012758 -0.999919 0 128 255 1.000000
-0.178438 -0.155569 -0.253849 0.277364 0.002704 0.960761 0 128 255 1.000000
-0.233517 -0.064546 0.585472 0.000000 -0.045539 -0.998963 0 128 255 1.000000
-0.257958 0.682658 -0.345969 -0.422438 -0.205378 -0.882817 0 128 255 1.000000
-0.092232 0.019065 0.246084 -0.040407 0.998554 -0.035444 0 128 255 1.000000
-0.146605 0.731622 -0.457413 0.103745 -0.773449 0.625311 0 128 255 1.000000
-0.049354 0.012922 0.095903 -0.019089 0.997289 -0.071063 0 128 255 1.000000
0.057176 -0.156371 0.316063 0.000000 -0.997936 0.064210 0 128 255 1.000000
0.196776 0.261124 -0.217888 -0.336105 0.093947 0.937127 0 128 255 1.000000
-0.101199 0.004804 0.518043 0.000000 0.997936 -0.064210 0 128 255 1.000000
0.300661 -0.058083 0.055752 0.940955 0.337834 -0.021737 0 128 255 1.000000
0.091501 0.598832 -0.437837 -0.134818 0.190554 0.972375 0 128 255 1.000000
-0.111603 -0.093566 0.587339 0.000000 0.045539 0.998963 0 128 255 1.000000
0.348421 -0.601038 -0.214921 -1.000000 0.000000 0.000000 128 63 0 1.000000
-0.055518 -0.011194 0.167100 0.000000 -0.997936 0.064210 0 128 255 1.000000
-0.347087 -0.524760 -0.233483 0.000000 0.110181 -0.993912 128 63 0 1.000000
-0.197006 0.337944 -0.314315 -0.328636 -0.116296 -0.937269 0 128 255 1.000000
0.301444 -0.131117 0.384151 0.946471 -0.322123 0.020726 0 128 255 1.000000
0.236765 0.107655 -0.175360 0.396232 -0.048407 -0.916873 0 128 255 1.000000
-0.065646 -0.113046 -0.205562 0.119295 -0.001998 0.992857 0 128 255 1.000000
-0.138810 -0.004279 0.318805 0.000000 0.997936 -0.064210 0 128 255 1.000000
-0.046555 0.670786 -0.401162 -0.090664 -0.217040 -0.971943 0 128 255 1.000000
0.178831 -0.154897 0.348416 0.000000 0.997936 -0.064210 0 128 255 1.000000
-0.284076 -0.210441 -0.212251 0.000000 0.024940 -0.999689 128 63 0 1.000000
-0.129393 -0.133056 -0.266180 0.206576 0.007073 0.978405 0 128 255 1.000000
0.292136 0.177779 -0.168894 0.007463 -0.083298 -0.996497 0 128 255 1.000000
0.330170 -0.087975 -0.168559 0.000000 -0.990024 -0.140901 0 128 255 1.000000
0.160535 -0.004275 -0.267831 -0.240489 0.033657 0.970068 0 128 255 1.000000
0.348421 -0.310841 -0.200441 -1.000000 0.000000 0.000000 128 63 0 1.000000
0.287909 -0.538263 -0.235055 0.000000 -0.113844 0.993499 128 63 0 1.000000
-0.214478 -0.163538 0.158845 0.000000 0.997936 -0.064210 0 128 255 1.000000
0.300323 -0.066983 -0.159576 -0.938444 -0.344720 0.022180 0 128 255 1.000000
-0.172433 0.672618 -0.375659 0.301420 0.211035 0.929844 0 128 255 1.000000
-0.293228 0.502628 -0.251528 0.239112 -0.154718 -0.958586 0 128 255 1.000000
0.080235 0.000684 -0.000938 -0.031209 -0.994731 0.097650 0 128 255 1.000000
-0.307005 -0.329955 -0.217188 0.000000 0.057352 -0.998354 128 63 0 1.000000
-0.102545 0.719510 -0.481918 -0.146982 0.285612 -0.947007 0 128 255 1.000000
-0.127349 -0.004826 -0.035572 0.052052 -0.993005 0.105979 0 128 255 1.000000
0.045217 -0.144979 0.565973 0.000000 0.997936 -0.064210 0 128 255 1.000000
0.043153 0.332341 -0.268017 0.065599 -0.121224 -0.990455 0 128 255 1.000000
-0.130930 0.001991 0.456339 0.000000 0.997936 -0.064210 0 128 255 1.000000
0.253890 -0.000150 -0.158396 -0.406645 0.018074 0.913408 0 128 255 1.000000
0.096623 -0.056104 -0.276632 0.139349 -0.022684 -0.989983 0 128 255 1.000000
-0.152752 0.420592 -0.272689 0.282843 0.141593 0.948658 0 128 255 1.000000
-0.113392 0.007944 0.052339 -0.046515 0.995427 -0.083435 0 128 255 1.000000
0.103532 -0.001152 0.387389 0.000000 0.997936 -0.064210 0 128 255 1.000000
0.002593 0.155096 -0.307456 -0.006737 -0.076841 -0.997021 0 128 255 1.000000
-0.308757 0.579643 -0.287971 0.573664 -0.136460 -0.807644 0 128 255 1.000000
0.174456 -0.020397 -0.034769 0.000000 0.997936 -0.064210 0 128 255 1.000000
-0.140525 0.019398 0.399108 0.058207 -0.998289 -0.005515 0 128 255 1.000000
-0.165457 0.473678 -0.288059 0.302984 0.156164 0.940114 0 128 255 1.000000
-0.141722 0.711260 -0.405592 -0.247293 -0.219192 -0.943823 0 128 255 1.000000
0.225315 -0.492791 0.533214 -0.999631 -0.027164 -0.000000 128 63 0 1.000000
-0.004887 -0.015548 0.071599 0.000000 -0.997936 0.064210 0 128 255 1.000000
0.320703 -0.015269 -0.146329 -0.623344 -0.038571 -0.780996 0 128 255 1.000000
-0.020378 0.039880 -0.289950 0.043289 0.047667 0.997925 0 128 255 1.000000
-0.027058 0.326873 -0.344896 0.055370 0.120373 0.991183 0 128 255 1.000000
-0.123139 -0.015520 0.072205 0.000000 0.997936 -0.064210 0 128 255 1.000000
-0.213825 -0.319447 0.561762 -0.999631 0.027164 0.000000 128 63 0 1.000000
-0.039222 0.018669 0.173140 0.015931 -0.998527 0.051859 0 128 255 1.000000
0.267899 -0.153628 0.376255 0.000000 -0.997936 0.064210 0 128 255 1.000000
-0.295646 -0.124786 0.465435 0.953050 0.302187 -0.019444 0 128 255 1.000000
-0.295916 -0.133984 0.241456 0.955402 0.294700 -0.018962 0 128 255 1.000000
-0.327500 -0.242560 -0.132542 0.000000 -0.130917 0.991393 128 63 0 1.000000
-0.093681 -0.148465 0.489504 0.000000 -0.997936 0.064210 0 128 255 1.000000
0.272548 -0.610321 -0.210903 1.000000 0.000000 0.000000 128 63 0 1.000000
0.179963 -0.006341 0.273567 0.000000 -0.997936 0.064210 0 128 255 1.000000
-0.060561 -0.013617 0.113968 0.000000 -0.997936 0.064210 0 128 255 1.000000
0.272548 -0.348047 -0.167078 -1.000000 0.000000 0.000000 128 63 0 1.000000
0.263675 0.298702 -0.282328 0.407827 -0.102444 -0.907294 0 128 255 1.000000
0.090819 0.004035 0.501193 0.000000 0.997936 -0.064210 0 128 255 1.000000
-0.019867 0.631120 -0.457447 -0.042003 -0.200446 -0.978804 0 128 255 1.000000
0.218870 0.017461 -0.174101 0.359603 -0.024968 -0.932771 0 128 255 1.000000
-0.053048 0.519878 -0.407898 0.096279 0.170171 0.980700 0 128 255 1.000000
-0.280331 0.675218 -0.411021 0.422569 0.193494 0.885435 0 128 255 1.000000
0.278795 -0.489277 -0.229797 0.000000 -0.100560 0.994931 128 63 0 1.000000
0.163522 0.003091 0.049646 0.064398 0.994311 -0.084848 0 128 255 1.000000
-0.226480 0.717853 -0.379503 0.382906 0.202185 0.901390 0 128 255 1.000000
-0.081236 -0.009280 0.209092 0.000000 -0.997936 0.064210 0 128 255 1.000000
0.193239 -0.152032 0.411268 0.000000 -0.997936 0.064210 0 128 255 1.000000
-0.117526 0.673529 -0.466387 -0.192987 -0.203891 -0.959784 0 128 255 1.000000
0.093571 -0.089825 -0.170665 0.000000 0.102080 -0.994776 0 128 255 1.000000
-0.135840 0.368984 -0.261352 -0.254214 -0.127791 -0.958668 0 128 255 1.000000
-0.299675 -0.130315 -0.026558 0.984529 0.174859 -0.011251 0 128 255 1.000000
-0.250254 -0.766954 0.555641 0.000000 -0.027164 0.999631 128 63 0 1.000000
-0.298294 -0.588349 -0.241113 0.000000 0.127427 -0.991848 128 63 0 1.000000
0.049316 0.006829 0.042638 -0.018675 -0.996081 0.086450 0 128 255 1.000000
0.145739 0.087056 -0.203793 -0.242084 0.048403 0.969047 0 128 255 1.000000
0.119907 0.011213 0.119976 0.046681 0.996666 -0.066915 0 128 255 1.000000
-0.255516 0.110205 -0.160267 0.424824 0.047503 0.904029 0 128 255 1.000000
0.306881 -0.087992 0.292672 1.000000 0.000000 0.000000 0 128 255 1.000000
-0.163753 0.221449 -0.295804 0.275417 0.088997 0.957196 0 128 255 1.000000
0.244603 -0.154689 -0.236297 -0.353496 0.000570 0.935436 0 128 255 1.000000
-0.271827 -0.023938 -0.053559 0.798225 -0.601117 0.038677 0 128 255 1.000000
-0.276346 -0.159893 -0.187247 0.000000 0.971410 -0.237410 0 128 255 1.000000
-0.026092 -0.002219 -0.020156 -0.011039 0.994719 -0.102045 0 128 255 1.000000
0.305998 -0.107302 0.542571 0.980239 -0.197409 0.012702 0 128 255 1.000000
-0.285386 -0.380775 -0.220453 0.000000 -0.071134 0.997467 128 63 0 1.000000
0.272548 -0.228203 -0.187531 -1.000000 0.000000 0.000000 128 63 0 1.000000
-0.232720 -0.424782 0.564939 0.000000 0.027164 -0.999631 128 63 0 1.000000
-0.145116 0.126479 -0.204970 0.265913 0.058751 0.962205 0 128 255 1.000000
-0.349608 -0.261213 -0.168569 -1.000000 0.000000 0.000000 128 63 0 1.000000
0.180400 -0.159153 0.255045 0.000000 0.997936 -0.064210 0 128 255 1.000000
0.327110 -0.041892 -0.197696 -0.733951 0.002252 0.679199 0 128 255 1.000000
-0.257271 -0.087313 -0.170376 0.000000 0.120030 -0.992770 0 128 255 1.000000
0.299598 -0.325628 -0.216936 0.000000 -0.056178 0.998421 128 63 0 1.000000
0.334398 -0.124877 -0.117283 0.000000 0.140901 -0.990024 0 128 255 1.000000
0.292515 -0.381100 -0.220477 0.000000 -0.071222 0.997460 128 63 0 1.000000
0.113252 0.386102 -0.354313 0.173534 -0.133852 -0.975689 0 128 255 1.000000
0.020559 -0.009865 -0.211847 0.023779 -0.024223 -0.999424 0 128 255 1.000000
0.258711 0.477767 -0.340839 -0.399640 0.148138 0.904623 0 128 255 1.000000
0.010325 0.228459 -0.321920 -0.005864 0.095439 0.995418 0 128 255 1.000000
0.176678 0.498945 -0.378196 -0.272330 0.159965 0.948814 0 128 255 1.000000
-0.210985 -0.214941 0.515539 -0.999631 0.027164 0.000000 128 63 0 1.000000
-0.273735 -0.497798 -0.172756 1.000000 0.000000 0.000000 128 63 0 1.000000
-0.240615 0.513256 -0.273424 -0.416732 -0.161231 -0.894617 0 128 255 1.000000
-0.179027 -0.066425 0.585593 0.000000 0.045539 0.998963 0 128 255 1.000000
-0.232048 -0.155232 0.341060 0.000000 0.997936 -0.064210 0 128 255 1.000000
-0.018749 0.583121 -0.436164 0.040469 0.187563 0.981419 0 128 255 1.000000
0.139063 -0.055396 -0.159789 0.000000 -0.329689 0.944090 0 128 255 1.000000
0.138215 -0.144351 -0.267079 0.198386 -0.005829 -0.980107 0 128 255 1.000000
0.303371 -0.129233 0.288930 0.961137 -0.275503 0.017727 0 128 255 1.000000
-0.027761 -0.036254 0.577102 0.000000 0.321979 0.946747 0 128 255 1.000000
-0.246787 -0.163967 0.149444 0.000000 -0.997936 0.064210 0 128 255 1.000000
-0.147767 0.003120 0.020930 0.060127 -0.994010 0.091260 0 128 255 1.000000
-0.255756 0.495153 -0.342356 0.410874 0.151819 0.898962 0 128 255 1.000000
0.135346 -0.171640 -0.018884 0.000000 -0.997936 0.064210 0 128 255 1.000000
-0.300017 -0.134133 -0.158678 -0.987413 -0.157837 0.010156 0 128 255 1.000000
-0.316769 0.266545 -0.218696 0.999098 -0.005692 -0.042087 0 128 255 1.000000
0.208375 -0.093626 -0.170945 0.000000 -0.045539 -0.998963 0 128 255 1.000000
-0.324259 0.573539 -0.324620 0.982857 0.055763 0.175736 0 128 255 1.000000
-0.248908 0.606784 -0.311441 0.419619 0.188339 0.887946 0 128 255 1.000000
-0.301611 -0.467281 -0.227580 0.000000 -0.094593 0.995516 128 63 0 1.000000
-0.273735 -0.768933 -0.238987 1.000000 0.000000 0.000000 128 63 0 1.000000
0.272548 -0.283723 -0.211362 -1.000000 0.000000 0.000000 128 63 0 1.000000
0.044638 -0.016229 -0.096840 0.014633 0.992132 -0.124336 0 128 255 1.000000
-0.233923 0.043433 -0.243480 0.375683 0.040760 0.925852 0 128 255 1.000000
0.233007 -0.775839 0.533073 0.999631 0.027164 0.000000 128 63 0 1.000000
0.272548 -0.487899 -0.170253 -1.000000 0.000000 0.000000 128 63 0 1.000000
-0.163619 -0.019484 -0.014738 0.000000 -0.997936 0.064210 0 128 255 1.000000
0.331296 -0.508429 -0.172616 0.000000 -0.167071 0.985945 128 63 0 1.000000
0.282985 0.016151 -0.145305 0.430497 -0.021229 -0.902342 0 128 255 1.000000
0.296202 -0.513498 -0.232313 0.000000 -0.107128 0.994245 128 63 0 1.000000
0.123773 0.002157 0.459985 0.000000 -0.997936 0.064210 0 128 255 1.000000
-0.010177 -0.161284 0.208290 0.000000 0.997936 -0.064210 0 128 255 1.000000
0.211057 -0.030142 -0.143333 0.000000 -0.484625 0.874722 0 128 255 1.000000
-0.075332 0.312113 -0.336298 -0.134160 -0.115634 -0.984190 0 128 255 1.000000
-0.220409 -0.433638 0.504575 0.000000 -0.027164 -0.999631 128 63 0 1.000000
-0.096555 0.588956 -0.353949 0.179259 0.194748 0.964334 0 128 255 1.000000
-0.200972 -0.109341 -0.247292 0.314159 0.007463 0.949341 0 128 255 1.000000
0.279338 -0.016022 0.140840 -0.800922 -0.597533 0.038447 0 128 255 1.000000
0.319121 -0.807531 -0.242783 0.000000 -0.990024 -0.140901 128 63 0 1.000000
-0.233045 0.245763 -0.193926 -0.411593 -0.085892 -0.907311 0 128 255 1.000000
0.296526 -0.165677 -0.102030 -0.913519 0.405957 -0.026120 0 128 255 1.000000
-0.189642 0.074302 -0.263353 0.310397 0.051035 0.949236 0 128 255 1.000000
-0.265749 -0.157018 0.301890 0.000000 0.997936 -0.064210 0 128 255 1.000000
0.164567 0.008229 0.164906 -0.064721 -0.996371 0.055284 0 128 255 1.000000
-0.259324 0.652970 -0.410321 -0.407848 -0.191243 -0.892797 0 128 255 1.000000
0.233585 -0.407142 0.565418 0.000000 -0.027164 0.999631 128 63 0 1.000000
-0.165767 -0.166076 0.103181 0.000000 -0.997936 0.064210 0 128 255 1.000000
-0.140384 0.001348 -0.194315 0.250597 0.024190 0.967789 0 128 255 1.000000
-0.312404 -0.127643 -0.209641 0.000000 0.140901 -0.990024 0 128 255 1.000000
0.124203 -0.028632 -0.142093 0.000000 0.490182 -0.871620 0 128 255 1.000000
-0.092149 -0.145975 0.544125 0.000000 -0.997936 0.064210 0 128 255 1.000000
-0.160477 0.003685 0.069531 -0.065918 0.994674 -0.079238 0 128 255 1.000000
0.306881 -0.115916 -0.052754 1.000000 0.000000 0.000000 0 128 255 1.000000
0.196716 0.650053 -0.360256 0.320966 -0.206601 -0.924282 0 128 255 1.000000
-0.302536 0.414126 -0.290019 0.553508 0.121213 0.823976 0 128 255 1.000000
0.306301 -0.070150 0.240995 -0.983251 -0.181880 0.011703 0 128 255 1.000000
-0.275511 0.424923 -0.307001 0.427355 0.132763 0.894283 0 128 255 1.000000
-0.077500 0.008197 0.526155 -0.018361 0.998806 0.045272 0 128 255 1.000000
-0.120188 0.019610 0.314920 -0.050432 0.998589 -0.016614 0 128 255 1.000000
-0.300101 -0.099914 0.268467 1.000000 0.000000 0.000000 0 128 255 1.000000
-0.230270 0.076704 -0.168752 0.403097 0.039519 0.914303 0 128 255 1.000000
-0.104143 0.338641 -0.259566 0.198600 0.120773 0.972611 0 128 255 1.000000
-0.274117 -0.146483 0.532991 0.000000 -0.997936 0.064210 0 128 255 1.000000
-0.017015 0.004083 0.021928 0.008939 -0.995680 0.092422 0 128 255 1.000000
-0.273735 -0.696016 -0.235658 -1.000000 0.000000 0.000000 128 63 0 1.000000
-0.300101 -0.095270 0.085452 -1.000000 0.000000 0.000000 0 128 255 1.000000
-0.036201 0.246747 -0.246408 -0.077049 -0.096588 -0.992338 0 128 255 1.000000
0.276677 -0.696931 0.538840 -0.999631 0.027164 0.000000 128 63 0 1.000000
0.267938 0.617489 -0.313849 0.423417 -0.191144 -0.885541 0 128 255 1.000000
0.080431 0.461337 -0.384028 -0.119786 0.154463 0.980710 0 128 255 1.000000
-0.159172 0.561308 -0.404631 0.263387 0.176638 0.948381 0 128 255 1.000000
-0.276048 0.581784 -0.368353 0.423779 0.173170 0.889058 0 128 255 1.000000
-0.327312 -0.052602 -0.170952 -0.998669 0.028264 0.043144 0 128 255 1.000000
0.244428 0.005540 0.534200 0.000000 -0.997936 0.064210 0 128 255 1.000000
-0.268346 -0.753991 0.523219 0.999631 0.027164 0.000000 128 63 0 1.000000
0.068497 0.002256 0.462153 0.000000 -0.997936 0.064210 0 128 255 1.000000
0.018426 0.077540 -0.219453 0.020730 -0.048890 -0.998589 0 128 255 1.000000
-0.210850 0.466505 -0.350623 -0.347455 -0.148158 -0.925918 0 128 255 1.000000
-0.147423 -0.155516 0.334839 0.000000 -0.997936 0.064210 0 128 255 1.000000
-0.287521 -0.045138 0.014295 0.893027 -0.449073 0.028894 0 128 255 1.000000
0.308421 0.049719 -0.146728 -0.369717 -0.049382 -0.927831 0 128 255 1.000000
0.148609 0.194700 -0.219087 0.251355 -0.078372 -0.964717 0 128 255 1.000000
-0.283064 -0.090573 -0.213702 0.417228 0.006030 0.908782 0 128 255 1.000000
0.294197 -0.157657 0.177290 0.905309 -0.423878 0.027273 0 128 255 1.000000
-0.249126 0.293260 -0.281412 -0.406941 -0.101133 -0.907839 0 128 255 1.000000
-0.093126 -0.019381 -0.012476 0.000000 -0.997936 0.064210 0 128 255 1.000000
0.137466 0.375082 -0.266049 0.233384 -0.130233 -0.963624 0 128 255 1.000000
-0.249264 -0.139849 -0.229254 0.381034 0.001437 0.924560 0 128 255 1.000000
0.245719 -0.818296 0.515027 0.000000 -0.027164 -0.999631 128 63 0 1.000000
0.197346 -0.035378 -0.255086 0.294475 -0.024324 -0.955350 0 128 255 1.000000
0.091545 -0.010575 0.180693 0.000000 0.997936 -0.064210 0 128 255 1.000000
-0.299792 0.078717 -0.210181 -0.507267 -0.035464 -0.861059 0 128 255 1.000000
0.086235 -0.022211 -0.074576 0.000000 0.997936 -0.064210 0 128 255 1.000000
-0.087116 0.392333 -0.279524 0.167981 0.137003 0.976224 0 128 255 1.000000
-0.231149 0.407550 -0.239073 -0.411103 -0.131396 -0.902070 0 128 255 1.000000
0.302668 0.655967 -0.396660 -0.430481 0.190012 0.882372 0 128 255 1.000000
-0.130246 -0.005484 0.292369 0.000000 0.997936 -0.064210 0 128 255 1.000000
-0.297379 -0.075654 -0.081685 0.967316 -0.253050 0.016282 0 128 255 1.000000
-0.148767 0.186147 -0.293201 0.250863 0.080962 0.964631 0 128 255 1.000000
0.270476 0.189562 -0.254661 -0.411106 0.075132 0.908486 0 128 255 1.000000
-0.115471 -0.153788 -0.268968 0.184486 0.004893 0.982823 0 128 255 1.000000
0.131403 0.014349 0.211596 -0.050953 -0.997749 0.043599 0 128 255 1.000000
-0.276972 0.091087 -0.154914 0.176907 0.057723 0.982533 0 128 255 1.000000
-0.321793 -0.481166 -0.167996 0.000000 -0.163363 0.986566 128 63 0 1.000000
0.086698 0.001356 0.442412 0.000000 0.997936 -0.064210 0 128 255 1.000000
0.123074 -0.151445 0.424138 0.000000 0.997936 -0.064210 0 128 255 1.000000
-0.304511 0.374367 -0.216818 0.691112 -0.088504 -0.717308 0 128 255 1.000000
-0.274056 -0.440727 0.504767 0.000000 -0.027164 -0.999631 128 63 0 1.000000
0.150861 0.687956 -0.469130 0.222995 -0.204926 -0.953037 0 128 255 1.000000
-0.158463 0.011840 0.242402 -0.065419 0.997249 -0.034862 0 128 255 1.000000
-0.323512 -0.176437 -0.161786 0.000000 1.000000 0.000000 128 63 0 1.000000
-0.116324 -0.087286 -0.269540 0.189118 0.014039 0.981854 0 128 255 1.000000
0.086538 0.643008 -0.458591 -0.125583 0.201351 0.971435 0 128 255 1.000000
0.115883 -0.102204 -0.170393 0.000000 -0.045539 -0.998963 0 128 255 1.000000
-0.086407 -0.106714 -0.170103 0.000000 -0.045539 -0.998963 0 128 255 1.000000
0.301020 -0.046559 0.329872 -0.943561 -0.330516 0.021266 0 128 255 1.000000
0.325546 -0.682185 -0.254424 0.000000 -0.152876 0.988245 128 63 0 1.000000
-0.349608 -0.438918 -0.199660 -1.000000 0.000000 0.000000 128 63 0 1.000000
0.176916 0.308313 -0.235902 -0.302498 0.108666 0.946935 0 128 255 1.000000
-0.349608 -0.634134 -0.219544 -1.000000 0.000000 0.000000 128 63 0 1.000000
0.235020 0.483046 -0.270507 -0.397054 0.153869 0.904805 0 128 255 1.000000
0.306881 -0.085336 0.188157 -1.000000 0.000000 0.000000 0 128 255 1.000000
