-0.422301 0.029966 0.081232 0.300000 0.000000 0.600000
0.187117 0.056054 0.453412 0.300000 0.000000 0.600000
0.258605 -0.020284 -0.250766 0.300000 0.000000 0.600000
0.197103 -0.020284 0.181333 0.300000 0.000000 0.600000
-0.373315 -0.160163 -0.280266 0.000000 0.500000 0.500000
0.130046 0.056054 0.362690 0.300000 0.000000 0.600000
0.366683 0.020058 0.484030 0.300000 0.000000 0.600000
-0.070273 0.056054 0.045426 0.300000 0.000000 0.600000
0.406011 -0.020284 0.382385 0.300000 0.000000 0.600000
-0.416641 0.056054 0.060476 0.300000 0.000000 0.600000
0.419201 -0.104811 0.427859 0.600000 0.000000 0.300000
-0.377370 -0.184794 0.482122 0.300000 0.000000 0.600000
0.329398 0.056054 0.181430 0.300000 0.000000 0.600000
0.063705 -0.020284 0.179101 0.300000 0.000000 0.600000
-0.065049 0.056054 0.156442 0.300000 0.000000 0.600000
0.421427 -0.000403 -0.052392 0.300000 0.000000 0.600000
-0.381153 -0.310757 0.482122 0.300000 0.000000 0.600000
0.343072 -0.106786 -0.336876 0.300000 0.600000 0.000000
0.271206 -0.020284 0.089847 0.300000 0.000000 0.600000
0.134076 0.629492 -0.335645 0.000000 1.000000 0.000000
0.400592 -0.533151 -0.356023 0.300000 0.600000 0.000000
0.360983 0.606313 -0.283911 0.800000 0.200000 0.500000
-0.113831 -0.020284 -0.050420 0.300000 0.000000 0.600000
-0.185171 0.056054 0.062915 0.300000 0.000000 0.600000
0.362177 -0.020284 0.311441 0.300000 0.000000 0.600000
0.271809 0.056054 -0.221182 0.300000 0.000000 0.600000
-0.137287 -0.020284 -0.335649 0.300000 0.000000 0.600000
-0.350371 0.739159 -0.324031 0.000000 0.000000 1.000000
-0.289481 0.711842 -0.305919 0.000000 1.000000 0.000000
0.158895 0.532448 -0.329883 0.000000 1.000000 0.000000
0.139212 -0.020284 0.268706 0.300000 0.000000 0.600000
0.353284 -0.020284 -0.226755 0.300000 0.000000 0.600000
-0.268064 0.610530 -0.335645 0.000000 1.000000 0.000000
0.320827 -0.020284 0.255330 0.300000 0.000000 0.600000
-0.379067 0.612457 -0.358935 0.000000 0.000000 1.000000
-0.377084 0.551293 -0.283285 0.000000 0.000000 1.000000
0.364557 0.056054 0.022698 0.300000 0.000000 0.600000
-0.422301 0.013642 -0.053144 0.300000 0.000000 0.600000
-0.348319 -0.561318 0.424323 0.300000 0.000000 0.600000
-0.264379 0.056054 -0.034482 0.300000 0.000000 0.600000
-0.344232 -0.709988 0.424861 0.300000 0.000000 0.600000
-0.371495 -0.020284 0.042503 0.300000 0.000000 0.600000
0.284411 0.589113 -0.305110 0.000000 1.000000 0.000000
-0.403326 0.161306 -0.290787 0.000000 0.000000 1.000000
0.392137 0.332988 -0.280611 0.800000 0.200000 0.500000
0.237341 0.056054 -0.192910 0.300000 0.000000 0.600000
0.205851 0.056054 -0.239309 0.300000 0.000000 0.600000
0.073997 0.656149 -0.335645 0.000000 1.000000 0.000000
-0.419585 0.258592 -0.317272 0.000000 0.000000 1.000000
0.181074 0.056054 0.034492 0.300000 0.000000 0.600000
-0.053691 0.056054 -0.265175 0.300000 0.000000 0.600000
0.385182 -0.020284 -0.166486 0.300000 0.000000 0.600000
-0.239028 -0.020284 0.270176 0.300000 0.000000 0.600000
-0.317377 0.687702 -0.305110 0.000000 1.000000 0.000000
0.002506 0.669564 -0.305110 0.000000 1.000000 0.000000
-0.075196 0.056054 -0.208858 0.300000 0.000000 0.600000
-0.408467 -0.682580 -0.346395 0.000000 0.500000 0.500000
0.407310 0.377593 -0.292777 0.800000 0.200000 0.500000
-0.129333 0.056054 0.037328 0.300000 0.000000 0.600000
0.161086 0.022298 0.484030 0.300000 0.000000 0.600000
-0.307131 -0.020284 0.351576 0.300000 0.000000 0.600000
0.400673 0.667978 -0.282985 0.800000 0.200000 0.500000
0.385063 -0.020284 0.091630 0.300000 0.000000 0.600000
0.055090 -0.020284 -0.032626 0.300000 0.000000 0.600000
-0.287738 0.056054 -0.077181 0.300000 0.000000 0.600000
0.023136 0.042097 0.484030 0.300000 0.000000 0.600000
-0.343409 0.375393 -0.334256 0.000000 0.000000 1.000000
0.098418 0.532478 -0.305110 0.000000 1.000000 0.000000
0.411397 -0.757761 0.423031 0.600000 0.000000 0.300000
0.094882 0.016800 0.484030 0.300000 0.000000 0.600000
0.129269 0.599297 -0.305110 0.000000 1.000000 0.000000
0.397280 -0.699347 -0.358110 0.300000 0.600000 0.000000
0.315510 0.691339 -0.305110 0.000000 1.000000 0.000000
-0.380368 -0.020284 -0.215955 0.300000 0.000000 0.600000
0.208100 -0.020284 -0.023328 0.300000 0.000000 0.600000
0.373156 -0.351595 0.405784 0.600000 0.000000 0.300000
0.041214 0.056054 -0.176956 0.300000 0.000000 0.600000
-0.135529 -0.020284 0.226366 0.300000 0.000000 0.600000
-0.421856 -0.702446 -0.311886 0.000000 0.500000 0.500000
-0.286013 -0.020284 -0.271304 0.300000 0.000000 0.600000
-0.394947 -0.025236 0.482122 0.300000 0.000000 0.600000
-0.371828 0.467841 -0.280538 0.000000 0.000000 1.000000
-0.371197 -0.020284 0.003973 0.300000 0.000000 0.600000
0.100940 -0.020284 0.444514 0.300000 0.000000 0.600000
-0.343391 0.221908 -0.334133 0.000000 0.000000 1.000000
0.397689 0.056054 0.102411 0.300000 0.000000 0.600000
0.419557 -0.146306 -0.311594 0.300000 0.600000 0.000000
0.372073 0.042536 -0.280643 0.800000 0.200000 0.500000
-0.053725 0.698430 -0.305110 0.000000 1.000000 0.000000
0.082626 0.709960 -0.305110 0.000000 1.000000 0.000000
-0.248619 0.056054 -0.302284 0.300000 0.000000 0.600000
-0.346467 -0.200266 0.463338 0.300000 0.000000 0.600000
-0.177101 0.017180 0.484030 0.300000 0.000000 0.600000
-0.302036 0.056054 0.183140 0.300000 0.000000 0.600000
-0.128030 -0.020284 0.156993 0.300000 0.000000 0.600000
-0.378806 -0.784584 -0.281467 0.500000 0.500000 0.000000
0.238256 0.056054 0.435580 0.300000 0.000000 0.600000
-0.398160 -0.020284 -0.097973 0.300000 0.000000 0.600000
0.344036 0.056054 0.330617 0.300000 0.000000 0.600000
0.074619 -0.020284 0.260961 0.300000 0.000000 0.600000
0.282811 0.534530 -0.335645 0.000000 1.000000 0.000000
-0.421306 -0.134478 -0.303650 0.000000 0.500000 0.500000
-0.406771 0.654960 -0.295220 0.000000 0.000000 1.000000
-0.409719 -0.133370 0.466887 0.300000 0.000000 0.600000
0.379457 0.056054 0.385098 0.300000 0.000000 0.600000
0.384817 -0.602689 -0.280772 0.300000 0.600000 0.000000
0.373233 -0.415716 0.405784 0.600000 0.000000 0.300000
-0.197173 0.550096 -0.335645 0.000000 1.000000 0.000000
-0.095626 0.056054 0.361501 0.300000 0.000000 0.600000
0.338415 -0.020284 0.108266 0.300000 0.000000 0.600000
0.398083 -0.213826 -0.281631 0.300000 0.600000 0.000000
-0.208762 0.655076 -0.305110 0.000000 1.000000 0.000000
-0.033611 -0.020284 0.346636 0.300000 0.000000 0.600000
0.052845 -0.020284 -0.232448 0.300000 0.000000 0.600000
-0.343514 -0.077864 -0.319261 0.000000 0.500000 0.500000
-0.112438 0.610874 -0.335645 0.000000 1.000000 0.000000
-0.207449 0.056054 -0.112891 0.300000 0.000000 0.600000
-0.028794 0.638767 -0.335645 0.000000 1.000000 0.000000
-0.013986 -0.020284 -0.296511 0.300000 0.000000 0.600000
-0.362707 -0.093797 0.410015 0.300000 0.000000 0.600000
0.018311 0.017687 -0.358624 0.300000 0.000000 0.600000
0.343638 0.512867 -0.337883 0.800000 0.200000 0.500000
-0.140396 0.056054 -0.357341 0.300000 0.000000 0.600000
0.133660 0.056054 -0.335591 0.300000 0.000000 0.600000
0.074938 -0.020284 0.363816 0.300000 0.000000 0.600000
-0.022990 -0.020284 0.244047 0.300000 0.000000 0.600000
-0.394643 -0.480972 0.405784 0.300000 0.000000 0.600000
0.072248 0.056054 0.163497 0.300000 0.000000 0.600000
-0.246609 -0.020284 -0.144537 0.300000 0.000000 0.600000
-0.101832 -0.020284 0.193337 0.300000 0.000000 0.600000
-0.362168 0.056054 0.298713 0.300000 0.000000 0.600000
-0.030087 -0.020284 -0.265699 0.300000 0.000000 0.600000
-0.361053 -0.478165 -0.286192 0.000000 0.500000 0.500000
-0.240812 0.686792 -0.335645 0.000000 1.000000 0.000000
-0.334905 0.053293 -0.358624 0.300000 0.000000 0.600000
0.400167 -0.032811 0.481735 0.600000 0.000000 0.300000
-0.387530 0.056054 0.445608 0.300000 0.000000 0.600000
-0.219051 0.056054 0.326760 0.300000 0.000000 0.600000
-0.404916 0.661934 -0.351398 0.000000 0.000000 1.000000
-0.215571 0.056054 -0.048989 0.300000 0.000000 0.600000
-0.384774 0.012908 -0.356526 0.000000 0.000000 1.000000
0.253223 -0.020284 0.331448 0.300000 0.000000 0.600000
0.331744 -0.020284 -0.303934 0.300000 0.000000 0.600000
0.034142 0.590147 -0.335645 0.000000 1.000000 0.000000
-0.347062 -0.020284 -0.240355 0.300000 0.000000 0.600000
-0.224995 0.056054 0.244739 0.300000 0.000000 0.600000
0.342863 -0.585064 0.435484 0.600000 0.000000 0.300000
-0.392220 -0.746884 -0.281130 0.000000 0.500000 0.500000
-0.209087 0.696062 -0.335645 0.000000 1.000000 0.000000
-0.313585 -0.020284 -0.228853 0.300000 0.000000 0.600000
0.400826 -0.558594 0.410866 0.600000 0.000000 0.300000
-0.121721 -0.020284 -0.269118 0.300000 0.000000 0.600000
-0.394199 0.043654 -0.358624 0.300000 0.000000 0.600000
0.009465 0.056054 0.333443 0.300000 0.000000 0.600000
-0.328334 -0.020284 -0.177143 0.300000 0.000000 0.600000
-0.120002 -0.020284 0.271495 0.300000 0.000000 0.600000
0.183989 -0.020284 0.150294 0.300000 0.000000 0.600000
0.155017 0.688897 -0.305110 0.000000 1.000000 0.000000
-0.250042 -0.020284 0.387428 0.300000 0.000000 0.600000
0.420015 0.664806 -0.311626 0.800000 0.200000 0.500000
-0.380553 -0.728965 0.482122 0.300000 0.000000 0.600000
-0.152353 -0.020284 0.326426 0.300000 0.000000 0.600000
0.390121 -0.303295 -0.358926 0.300000 0.600000 0.000000
-0.344180 -0.270788 0.462558 0.300000 0.000000 0.600000
0.184445 0.056054 -0.134288 0.300000 0.000000 0.600000
0.378289 0.261885 -0.280589 0.800000 0.200000 0.500000
-0.218298 0.056054 0.176203 0.300000 0.000000 0.600000
-0.119663 -0.020284 -0.231072 0.300000 0.000000 0.600000
0.266440 -0.020284 0.456150 0.300000 0.000000 0.600000
-0.346386 -0.361192 -0.299604 0.000000 0.500000 0.500000
-0.180824 0.056054 -0.248586 0.300000 0.000000 0.600000
-0.321205 0.573941 -0.335645 0.000000 1.000000 0.000000
0.404148 -0.020284 0.002467 0.300000 0.000000 0.600000
-0.104750 0.056054 0.185528 0.300000 0.000000 0.600000
0.100694 -0.020284 0.070783 0.300000 0.000000 0.600000
0.009225 -0.020284 0.126832 0.300000 0.000000 0.600000
0.142942 0.055456 0.484030 0.300000 0.000000 0.600000
-0.387401 0.056054 -0.219460 0.300000 0.000000 0.600000
-0.378295 0.272094 -0.358935 0.000000 0.000000 1.000000
-0.398935 -0.450428 -0.281956 0.000000 0.500000 0.500000
0.266450 0.056054 -0.053566 0.300000 0.000000 0.600000
-0.250659 -0.020284 -0.253413 0.300000 0.000000 0.600000
-0.394929 -0.528830 -0.281497 0.000000 0.500000 0.500000
-0.365167 0.712337 -0.351213 0.000000 0.000000 1.000000
0.377086 -0.783562 -0.320263 0.000000 0.500000 0.500000
-0.421690 -0.638824 -0.306069 0.000000 0.500000 0.500000
-0.115241 0.056054 0.423472 0.300000 0.000000 0.600000
0.417916 0.178214 -0.300802 0.800000 0.200000 0.500000
0.137564 -0.020284 0.377834 0.300000 0.000000 0.600000
-0.366996 -0.430268 0.405784 0.300000 0.000000 0.600000
-0.198415 0.624167 -0.335645 0.000000 1.000000 0.000000
0.268341 0.711842 -0.329696 0.000000 1.000000 0.000000
-0.420518 -0.594260 0.460460 0.300000 0.000000 0.600000
-0.037852 0.056054 0.315568 0.300000 0.000000 0.600000
-0.410429 -0.020284 -0.010823 0.300000 0.000000 0.600000
-0.420106 0.633212 -0.319931 0.000000 0.000000 1.000000
-0.421856 0.054221 -0.324539 0.000000 0.000000 1.000000
-0.003668 -0.020284 -0.130281 0.300000 0.000000 0.600000
-0.373066 -0.113232 -0.358924 0.000000 0.500000 0.500000
-0.229515 0.022520 0.484030 0.300000 0.000000 0.600000
0.418165 -0.725947 0.424732 0.600000 0.000000 0.300000
0.418619 0.033987 -0.337299 0.800000 0.200000 0.500000
-0.214596 0.056054 0.401791 0.300000 0.000000 0.600000
0.407410 0.056054 0.336455 0.300000 0.000000 0.600000
-0.204367 -0.020284 0.350711 0.300000 0.000000 0.600000
-0.337537 0.056054 0.394140 0.300000 0.000000 0.600000
0.414086 0.056054 -0.121801 0.300000 0.000000 0.600000
0.000263 0.056054 -0.055603 0.300000 0.000000 0.600000
0.412163 0.056054 -0.189202 0.300000 0.000000 0.600000
0.377131 -0.415453 -0.358936 0.300000 0.600000 0.000000
-0.392592 0.226498 -0.354878 0.000000 0.000000 1.000000
0.126992 -0.016522 0.484030 0.300000 0.000000 0.600000
0.355937 -0.317649 -0.291048 0.300000 0.600000 0.000000
0.341585 -0.574238 -0.309254 0.300000 0.600000 0.000000
-0.164765 -0.020284 0.419461 0.300000 0.000000 0.600000
0.343017 0.560495 -0.336778 0.800000 0.200000 0.500000
0.201398 0.575591 -0.335645 0.000000 1.000000 0.000000
-0.373012 0.056054 0.069966 0.300000 0.000000 0.600000
-0.213841 -0.020284 -0.066183 0.300000 0.000000 0.600000
-0.318541 0.538220 -0.305110 0.000000 1.000000 0.000000
-0.421821 0.170416 -0.328835 0.000000 0.000000 1.000000
0.221054 0.711783 -0.305110 0.000000 1.000000 0.000000
0.405407 -0.592875 -0.348809 0.300000 0.600000 0.000000
0.363018 0.056054 0.208319 0.300000 0.000000 0.600000
-0.365283 0.325616 -0.287790 0.000000 0.000000 1.000000
0.255811 -0.020284 0.152329 0.300000 0.000000 0.600000
-0.353856 -0.513313 0.465697 0.300000 0.000000 0.600000
-0.063639 -0.020284 -0.266171 0.300000 0.000000 0.600000
-0.177754 -0.020284 -0.241215 0.300000 0.000000 0.600000
-0.420518 -0.286790 0.426859 0.300000 0.000000 0.600000
0.107082 0.684340 -0.305110 0.000000 1.000000 0.000000
0.300324 -0.020284 0.131319 0.300000 0.000000 0.600000
0.022856 0.711842 -0.327667 0.000000 1.000000 0.000000
0.366830 -0.712231 0.405784 0.600000 0.000000 0.300000
0.337532 0.056054 -0.269487 0.300000 0.000000 0.600000
0.115366 0.056054 -0.046105 0.300000 0.000000 0.600000
0.198840 -0.020284 -0.345012 0.300000 0.000000 0.600000
0.156517 -0.020284 0.012860 0.300000 0.000000 0.600000
-0.381481 0.672962 -0.328397 0.000000 1.000000 0.000000
0.404815 -0.715943 0.469788 0.600000 0.000000 0.300000
-0.343159 -0.252791 -0.328898 0.000000 0.500000 0.500000
0.360739 -0.135109 0.476517 0.600000 0.000000 0.300000
-0.069224 0.571561 -0.305110 0.000000 1.000000 0.000000
0.348768 -0.020284 0.406608 0.300000 0.000000 0.600000
0.347768 0.056054 0.478525 0.300000 0.000000 0.600000
0.115009 -0.020284 -0.045450 0.300000 0.000000 0.600000
0.292031 0.711842 -0.307268 0.000000 1.000000 0.000000
0.173923 -0.020284 0.331741 0.300000 0.000000 0.600000
-0.402997 -0.289871 0.475659 0.300000 0.000000 0.600000
-0.378008 0.551736 -0.358935 0.000000 0.000000 1.000000
-0.387429 -0.020284 0.150819 0.300000 0.000000 0.600000
0.404955 0.029697 0.475132 0.300000 0.000000 0.600000
0.044340 0.056054 -0.331410 0.300000 0.000000 0.600000
0.287816 0.056054 0.317531 0.300000 0.000000 0.600000
0.364697 -0.506776 0.405784 0.600000 0.000000 0.300000
0.384720 0.056054 0.299263 0.300000 0.000000 0.600000
0.149911 0.056054 0.092014 0.300000 0.000000 0.600000
-0.028034 -0.020284 -0.210851 0.300000 0.000000 0.600000
-0.280097 -0.020284 0.406991 0.300000 0.000000 0.600000
0.361509 -0.146351 0.409110 0.600000 0.000000 0.300000
-0.371589 0.532448 -0.323408 0.000000 1.000000 0.000000
-0.283937 -0.020284 0.105250 0.300000 0.000000 0.600000
-0.356253 -0.592549 -0.346357 0.000000 0.500000 0.500000
0.352188 -0.020284 -0.163445 0.300000 0.000000 0.600000
-0.346496 0.056054 -0.189273 0.300000 0.000000 0.600000
-0.362110 -0.362920 -0.354968 0.000000 0.500000 0.500000
0.179934 -0.020284 -0.044608 0.300000 0.000000 0.600000
-0.355661 -0.263739 0.420823 0.300000 0.000000 0.600000
-0.418586 -0.537599 -0.339311 0.000000 0.500000 0.500000
0.343683 -0.144292 -0.337965 0.300000 0.600000 0.000000
0.379882 -0.610248 0.405784 0.600000 0.000000 0.300000
-0.383759 0.338452 -0.358936 0.000000 0.000000 1.000000
0.097671 0.056054 0.297204 0.300000 0.000000 0.600000
-0.422301 0.055912 0.318463 0.300000 0.000000 0.600000
-0.379220 0.721798 -0.280799 0.000000 0.000000 1.000000
0.367734 -0.284001 -0.281595 0.300000 0.600000 0.000000
-0.152158 -0.020284 -0.208544 0.300000 0.000000 0.600000
-0.188072 -0.020284 0.390529 0.300000 0.000000 0.600000
0.067104 -0.020284 -0.350587 0.300000 0.000000 0.600000
0.421427 0.037856 0.152792 0.300000 0.000000 0.600000
-0.057675 0.056054 -0.085076 0.300000 0.000000 0.600000
0.190421 -0.020284 0.031397 0.300000 0.000000 0.600000
0.258775 0.056054 -0.297175 0.300000 0.000000 0.600000
-0.367515 -0.020284 -0.334053 0.300000 0.000000 0.600000
-0.399584 0.583124 -0.287745 0.000000 0.000000 1.000000
-0.421857 -0.319007 -0.316241 0.000000 0.500000 0.500000
0.302511 -0.020284 -0.289692 0.300000 0.000000 0.600000
-0.402288 -0.176726 -0.355453 0.000000 0.500000 0.500000
-0.420518 -0.689808 0.451087 0.300000 0.000000 0.600000
-0.012106 0.600242 -0.305110 0.000000 1.000000 0.000000
0.354150 0.585221 -0.305110 0.000000 1.000000 0.000000
-0.368307 -0.222294 -0.280340 0.000000 0.500000 0.500000
-0.134545 0.637068 -0.335645 0.000000 1.000000 0.000000
0.004143 -0.020284 -0.193801 0.300000 0.000000 0.600000
-0.421857 -0.421818 -0.317943 0.000000 0.500000 0.500000
0.344304 -0.774190 -0.299671 0.300000 0.600000 0.000000
0.396088 0.056054 0.169272 0.300000 0.000000 0.600000
-0.381883 -0.581864 -0.280903 0.000000 0.500000 0.500000
0.237077 0.056054 0.187606 0.300000 0.000000 0.600000
0.280266 0.056054 0.050733 0.300000 0.000000 0.600000
-0.242591 -0.020284 -0.189854 0.300000 0.000000 0.600000
-0.390915 -0.339220 -0.280950 0.000000 0.500000 0.500000
0.325149 -0.020284 -0.068274 0.300000 0.000000 0.600000
0.033728 0.056054 0.129774 0.300000 0.000000 0.600000
-0.421857 -0.498206 -0.316869 0.000000 0.500000 0.500000
0.416750 -0.784536 -0.314362 0.300000 0.600000 0.000000
0.418149 -0.308182 -0.338350 0.300000 0.600000 0.000000
0.403773 -0.429878 0.416760 0.600000 0.000000 0.300000
-0.230440 0.020508 -0.358624 0.300000 0.000000 0.600000
0.413365 -0.329205 -0.297072 0.300000 0.600000 0.000000
-0.219633 0.056054 0.050980 0.300000 0.000000 0.600000
-0.415337 0.697878 -0.335534 0.000000 0.000000 1.000000
0.357293 0.056054 -0.184648 0.300000 0.000000 0.600000
0.135347 -0.020284 0.123417 0.300000 0.000000 0.600000
-0.101531 0.572120 -0.305110 0.000000 1.000000 0.000000
0.053113 0.056054 -0.109485 0.300000 0.000000 0.600000
0.341525 -0.383903 -0.325589 0.300000 0.600000 0.000000
0.250752 0.568716 -0.305110 0.000000 1.000000 0.000000
-0.418526 -0.020284 0.128164 0.300000 0.000000 0.600000
0.360601 -0.263852 0.412402 0.600000 0.000000 0.300000
0.227887 -0.020284 -0.059260 0.300000 0.000000 0.600000
-0.369821 0.173408 -0.353912 0.000000 0.000000 1.000000
-0.401552 -0.566921 0.406680 0.300000 0.000000 0.600000
0.261291 -0.020284 0.419897 0.300000 0.000000 0.600000
-0.361297 0.070584 -0.353705 0.000000 0.000000 1.000000
0.203302 0.041446 0.484030 0.300000 0.000000 0.600000
-0.340858 0.056054 -0.035690 0.300000 0.000000 0.600000
-0.209206 -0.020284 0.308005 0.300000 0.000000 0.600000
-0.421549 0.557358 -0.334667 0.000000 0.000000 1.000000
-0.137959 0.666730 -0.305110 0.000000 1.000000 0.000000
-0.252639 0.056054 -0.154120 0.300000 0.000000 0.600000
0.381121 -0.366451 0.482122 0.600000 0.000000 0.300000
0.372839 -0.020284 0.154345 0.300000 0.000000 0.600000
0.351529 0.056054 -0.090970 0.300000 0.000000 0.600000
0.165144 -0.020284 -0.075560 0.300000 0.000000 0.600000
0.418522 0.436140 -0.301752 0.800000 0.200000 0.500000
0.392760 0.056054 0.072568 0.300000 0.000000 0.600000
0.065090 0.056054 0.238356 0.300000 0.000000 0.600000
-0.271801 0.056054 -0.355211 0.300000 0.000000 0.600000
0.205281 0.056054 -0.022157 0.300000 0.000000 0.600000
0.180195 0.628663 -0.305110 0.000000 1.000000 0.000000
0.357657 0.227846 -0.350250 0.800000 0.200000 0.500000
-0.377246 -0.143513 0.405784 0.300000 0.000000 0.600000
0.410893 -0.674647 0.422823 0.600000 0.000000 0.300000
0.386041 0.056054 -0.256806 0.300000 0.000000 0.600000
0.413901 -0.479835 0.424069 0.600000 0.000000 0.300000
-0.178151 -0.020284 0.250589 0.300000 0.000000 0.600000
0.020206 0.056054 -0.251564 0.300000 0.000000 0.600000
-0.181950 0.581833 -0.305110 0.000000 1.000000 0.000000
0.408435 0.265770 -0.293654 0.800000 0.200000 0.500000
0.349455 -0.573091 0.464655 0.600000 0.000000 0.300000
-0.344969 -0.051196 -0.301817 0.000000 0.500000 0.500000
0.415954 0.650944 -0.340143 0.800000 0.200000 0.500000
0.345400 0.711842 -0.333607 0.000000 1.000000 0.000000
0.298566 0.056054 0.422310 0.300000 0.000000 0.600000
-0.031172 0.056054 0.253627 0.300000 0.000000 0.600000
0.353686 0.308905 -0.345258 0.800000 0.200000 0.500000
0.086696 0.056054 0.010469 0.300000 0.000000 0.600000
-0.421748 -0.358650 -0.330976 0.000000 0.500000 0.500000
-0.348783 -0.102341 0.463643 0.300000 0.000000 0.600000
-0.395600 -0.331879 0.405784 0.300000 0.000000 0.600000
-0.127412 -0.020284 0.051814 0.300000 0.000000 0.600000
-0.179984 0.056054 -0.322067 0.300000 0.000000 0.600000
-0.413343 -0.277165 -0.342731 0.000000 0.500000 0.500000
0.421427 -0.018305 0.251533 0.300000 0.000000 0.600000
0.199687 -0.020284 0.089724 0.300000 0.000000 0.600000
-0.364270 0.599182 -0.305110 0.000000 1.000000 0.000000
0.098025 0.709582 -0.335645 0.000000 1.000000 0.000000
0.102175 0.056054 -0.185229 0.300000 0.000000 0.600000
0.213134 0.056054 0.318951 0.300000 0.000000 0.600000
0.169513 0.056054 0.185598 0.300000 0.000000 0.600000
-0.364184 0.264626 -0.288729 0.000000 0.000000 1.000000
0.008431 0.056054 -0.171939 0.300000 0.000000 0.600000
0.274359 0.056054 -0.161340 0.300000 0.000000 0.600000
-0.345754 0.056054 0.236031 0.300000 0.000000 0.600000
-0.301957 -0.020284 0.067727 0.300000 0.000000 0.600000
-0.347264 0.032389 -0.329698 0.000000 0.000000 1.000000
0.394378 -0.299959 0.482122 0.600000 0.000000 0.300000
-0.412752 -0.775159 0.465141 0.300000 0.000000 0.600000
-0.226779 -0.020284 0.411557 0.300000 0.000000 0.600000
0.100803 0.056054 0.139272 0.300000 0.000000 0.600000
-0.277749 0.582270 -0.335645 0.000000 1.000000 0.000000
0.341714 0.514621 -0.305375 0.800000 0.200000 0.500000
0.399332 -0.101572 -0.282167 0.300000 0.600000 0.000000
-0.420265 -0.745453 0.463333 0.300000 0.000000 0.600000
-0.218237 0.056054 -0.285248 0.300000 0.000000 0.600000
0.421427 0.056031 -0.073951 0.300000 0.000000 0.600000
0.390262 -0.399067 0.482122 0.600000 0.000000 0.300000
0.253153 0.056054 0.110814 0.300000 0.000000 0.600000
0.095953 0.056054 0.454571 0.300000 0.000000 0.600000
-0.422301 0.006577 0.315636 0.300000 0.000000 0.600000
0.101404 0.554782 -0.335645 0.000000 1.000000 0.000000
0.366198 -0.070966 0.482122 0.600000 0.000000 0.300000
0.419201 -0.295686 0.434055 0.600000 0.000000 0.300000
-0.420686 0.481457 -0.302503 0.000000 0.000000 1.000000
-0.422301 0.047231 0.465115 0.300000 0.000000 0.600000
-0.359858 0.428706 -0.351493 0.000000 0.000000 1.000000
0.392821 -0.020284 -0.035303 0.300000 0.000000 0.600000
-0.149882 0.056054 -0.127126 0.300000 0.000000 0.600000
-0.331797 0.056054 0.106517 0.300000 0.000000 0.600000
0.367127 -0.219966 -0.281678 0.300000 0.600000 0.000000
0.154171 -0.020284 -0.279142 0.300000 0.000000 0.600000
-0.304921 0.056054 -0.325657 0.300000 0.000000 0.600000
-0.287906 0.699495 -0.335645 0.000000 1.000000 0.000000
0.383714 -0.362121 -0.358935 0.300000 0.600000 0.000000
0.401030 0.208232 -0.283879 0.800000 0.200000 0.500000
-0.106799 0.056054 -0.221751 0.300000 0.000000 0.600000
0.399428 -0.243320 -0.282387 0.300000 0.600000 0.000000
-0.008868 0.056054 -0.196596 0.300000 0.000000 0.600000
-0.306904 -0.020284 0.454410 0.300000 0.000000 0.600000
-0.232124 0.574403 -0.305110 0.000000 1.000000 0.000000
0.405944 0.151721 -0.290840 0.800000 0.200000 0.500000
-0.344904 -0.020284 0.265006 0.300000 0.000000 0.600000
-0.286220 0.056054 -0.267932 0.300000 0.000000 0.600000
0.393594 -0.649744 0.482122 0.600000 0.000000 0.300000
0.383186 0.072098 -0.358935 0.800000 0.200000 0.500000
0.227121 0.631937 -0.335645 0.000000 1.000000 0.000000
-0.012106 -0.020284 0.420755 0.300000 0.000000 0.600000
0.039753 -0.020284 0.256718 0.300000 0.000000 0.600000
0.370624 0.722133 -0.280557 0.800000 0.200000 0.500000
0.015259 -0.020284 0.460355 0.300000 0.000000 0.600000
0.413045 -0.020284 0.321587 0.300000 0.000000 0.600000
0.400570 -0.199056 0.409225 0.600000 0.000000 0.300000
0.311365 0.056054 0.004470 0.300000 0.000000 0.600000
0.382527 -0.452656 0.482122 0.600000 0.000000 0.300000
-0.053295 -0.020284 0.146997 0.300000 0.000000 0.600000
0.341741 0.343129 -0.334178 0.800000 0.200000 0.500000
-0.255999 0.056054 0.022929 0.300000 0.000000 0.600000
-0.215672 0.045909 -0.358624 0.300000 0.000000 0.600000
-0.274101 -0.020284 -0.199440 0.300000 0.000000 0.600000
0.409555 -0.213410 0.465674 0.600000 0.000000 0.300000
-0.247258 0.056054 -0.094011 0.300000 0.000000 0.600000
-0.367642 0.033952 0.484030 0.300000 0.000000 0.600000
-0.002427 0.056054 0.466241 0.300000 0.000000 0.600000
-0.415646 -0.041839 -0.303798 0.000000 0.000000 1.000000
-0.364411 0.400310 -0.357160 0.000000 0.000000 1.000000
-0.210266 -0.020284 -0.126332 0.300000 0.000000 0.600000
-0.422301 0.055453 -0.250707 0.300000 0.000000 0.600000
-0.420518 -0.127386 0.429350 0.300000 0.000000 0.600000
-0.331591 0.532448 -0.330659 0.000000 1.000000 0.000000
0.274611 -0.020284 -0.032919 0.300000 0.000000 0.600000
0.029971 0.618734 -0.305110 0.000000 1.000000 0.000000
-0.351782 -0.354166 0.464790 0.300000 0.000000 0.600000
-0.016768 0.056054 0.145665 0.300000 0.000000 0.600000
-0.343729 -0.447723 -0.305232 0.000000 0.500000 0.500000
0.198849 -0.020284 -0.281731 0.300000 0.000000 0.600000
0.421427 0.003433 -0.193467 0.300000 0.000000 0.600000
-0.415427 -0.090971 0.424155 0.300000 0.000000 0.600000
-0.395153 0.211718 -0.285314 0.000000 0.000000 1.000000
0.070864 0.056054 -0.026748 0.300000 0.000000 0.600000
0.419201 -0.432715 0.459612 0.600000 0.000000 0.300000
0.421427 0.046746 0.120310 0.300000 0.000000 0.600000
0.107462 0.617629 -0.335645 0.000000 1.000000 0.000000
-0.408647 -0.463868 -0.346096 0.000000 0.500000 0.500000
0.146484 -0.020284 0.082185 0.300000 0.000000 0.600000
0.419032 0.056054 0.252654 0.300000 0.000000 0.600000
0.159027 0.056054 -0.188890 0.300000 0.000000 0.600000
0.407079 0.532455 -0.346427 0.800000 0.200000 0.500000
-0.287649 0.645276 -0.305110 0.000000 1.000000 0.000000
0.081624 -0.020284 0.422500 0.300000 0.000000 0.600000
0.342863 -0.667496 0.452758 0.600000 0.000000 0.300000
-0.034740 0.557210 -0.335645 0.000000 1.000000 0.000000
-0.414347 -0.544884 0.423708 0.300000 0.000000 0.600000
0.358243 0.327124 -0.287964 0.800000 0.200000 0.500000
-0.091427 0.056054 -0.270543 0.300000 0.000000 0.600000
0.419870 0.360131 -0.327633 0.800000 0.200000 0.500000
-0.260095 0.696671 -0.305110 0.000000 1.000000 0.000000
-0.183266 0.537757 -0.305110 0.000000 1.000000 0.000000
-0.169145 0.056054 0.348189 0.300000 0.000000 0.600000
-0.285146 -0.020284 0.290099 0.300000 0.000000 0.600000
-0.007412 0.056054 0.049520 0.300000 0.000000 0.600000
-0.185052 0.056054 -0.072678 0.300000 0.000000 0.600000
0.359011 0.659182 -0.352215 0.800000 0.200000 0.500000
0.341659 0.093935 -0.307016 0.800000 0.200000 0.500000
-0.407688 -0.039265 -0.347459 0.000000 0.500000 0.500000
0.365059 -0.005124 -0.281265 0.300000 0.600000 0.000000
-0.312363 0.567687 -0.305110 0.000000 1.000000 0.000000
-0.375980 -0.430743 -0.358934 0.000000 0.500000 0.500000
0.037307 -0.020284 -0.295447 0.300000 0.000000 0.600000
-0.312583 -0.020284 0.205500 0.300000 0.000000 0.600000
-0.367632 -0.285275 0.405784 0.300000 0.000000 0.600000
0.144062 0.056054 -0.308680 0.300000 0.000000 0.600000
0.354384 -0.360507 0.467442 0.600000 0.000000 0.300000
-0.153801 0.056054 0.315986 0.300000 0.000000 0.600000
-0.030909 0.056054 -0.123177 0.300000 0.000000 0.600000
-0.420518 -0.188635 0.432690 0.300000 0.000000 0.600000
-0.159354 0.572025 -0.335645 0.000000 1.000000 0.000000
-0.419861 0.318713 -0.318975 0.000000 0.000000 1.000000
-0.353667 0.094401 -0.298855 0.000000 0.000000 1.000000
0.368282 -0.210407 0.405784 0.600000 0.000000 0.300000
-0.395235 0.056054 0.118915 0.300000 0.000000 0.600000
-0.170998 -0.020284 0.133596 0.300000 0.000000 0.600000
0.389239 -0.777311 -0.358879 0.300000 0.600000 0.000000
-0.181096 0.711842 -0.309008 0.000000 1.000000 0.000000
-0.206649 0.056054 0.295873 0.300000 0.000000 0.600000
-0.409234 0.424532 -0.293000 0.000000 0.000000 1.000000
0.380433 -0.783665 0.440067 0.600000 0.000000 0.300000
-0.056737 0.056054 0.128925 0.300000 0.000000 0.600000
-0.231378 0.711842 -0.325191 0.000000 1.000000 0.000000
-0.335529 -0.020284 -0.306155 0.300000 0.000000 0.600000
-0.394483 -0.020284 -0.309309 0.300000 0.000000 0.600000
-0.234140 0.056054 0.483690 0.300000 0.000000 0.600000
-0.074924 -0.020284 0.030148 0.300000 0.000000 0.600000
-0.397182 0.390973 -0.358860 0.000000 0.000000 1.000000
-0.350526 -0.376601 0.423635 0.300000 0.000000 0.600000
-0.259088 0.660052 -0.305110 0.000000 1.000000 0.000000
-0.391868 -0.321406 -0.358922 0.000000 0.500000 0.500000
0.341524 0.068041 -0.322234 0.800000 0.200000 0.500000
-0.369528 0.659011 -0.305110 0.000000 1.000000 0.000000
-0.222018 -0.020284 -0.306950 0.300000 0.000000 0.600000
-0.405457 0.439034 -0.350630 0.000000 0.000000 1.000000
-0.403656 0.369692 -0.285173 0.000000 0.000000 1.000000
0.405478 -0.394362 -0.290402 0.300000 0.600000 0.000000
-0.343660 -0.129172 -0.315660 0.000000 0.500000 0.500000
-0.217146 0.056054 0.012491 0.300000 0.000000 0.600000
0.269239 -0.020284 -0.086529 0.300000 0.000000 0.600000
0.421427 0.024322 0.372632 0.300000 0.000000 0.600000
0.346164 0.056054 -0.034149 0.300000 0.000000 0.600000
0.054550 0.056054 0.376373 0.300000 0.000000 0.600000
-0.072853 -0.020284 0.240881 0.300000 0.000000 0.600000
0.334434 0.056054 0.023957 0.300000 0.000000 0.600000
0.408595 0.721172 -0.293761 0.800000 0.200000 0.500000
0.083402 0.056054 0.097350 0.300000 0.000000 0.600000
0.268000 -0.020284 -0.326886 0.300000 0.000000 0.600000
0.395958 -0.233065 -0.358854 0.300000 0.600000 0.000000
-0.401362 -0.200265 0.482122 0.300000 0.000000 0.600000
0.418780 -0.454829 -0.302567 0.300000 0.600000 0.000000
-0.317571 -0.020284 0.298348 0.300000 0.000000 0.600000
0.008294 0.056054 -0.106530 0.300000 0.000000 0.600000
-0.385233 0.608676 -0.280589 0.000000 0.000000 1.000000
0.293399 -0.020284 -0.150931 0.300000 0.000000 0.600000
0.045801 0.056054 0.425679 0.300000 0.000000 0.600000
-0.350516 0.424216 -0.302576 0.000000 0.000000 1.000000
0.064036 0.578563 -0.335645 0.000000 1.000000 0.000000
0.342863 -0.046454 0.427995 0.600000 0.000000 0.300000
0.421427 0.045272 0.043472 0.300000 0.000000 0.600000
-0.422301 0.002091 0.073062 0.300000 0.000000 0.600000
0.198650 -0.018613 0.484030 0.300000 0.000000 0.600000
-0.365972 -0.132716 -0.281103 0.000000 0.500000 0.500000
0.229983 0.056054 -0.089116 0.300000 0.000000 0.600000
-0.025257 0.009641 0.484030 0.300000 0.000000 0.600000
-0.422301 0.020980 0.402307 0.300000 0.000000 0.600000
0.291635 -0.020284 0.475468 0.300000 0.000000 0.600000
0.327028 -0.020284 0.072883 0.300000 0.000000 0.600000
0.351324 -0.535530 0.422759 0.600000 0.000000 0.300000
0.421427 -0.019575 0.057854 0.300000 0.000000 0.600000
-0.206075 0.056054 0.440135 0.300000 0.000000 0.600000
0.226587 0.056054 -0.258613 0.300000 0.000000 0.600000
0.403466 -0.430900 -0.351574 0.300000 0.600000 0.000000
-0.359353 -0.660853 -0.350774 0.000000 0.500000 0.500000
0.241820 -0.020284 -0.289481 0.300000 0.000000 0.600000
-0.343844 -0.488926 -0.316255 0.000000 0.500000 0.500000
0.421427 -0.010331 0.450870 0.300000 0.000000 0.600000
-0.068003 -0.020284 0.482382 0.300000 0.000000 0.600000
0.417453 0.056054 -0.013996 0.300000 0.000000 0.600000
0.403882 -0.020284 -0.197413 0.300000 0.000000 0.600000
0.171738 -0.020284 -0.145978 0.300000 0.000000 0.600000
0.336826 -0.020284 -0.132147 0.300000 0.000000 0.600000
0.379431 -0.020284 0.018432 0.300000 0.000000 0.600000
0.419622 -0.106083 -0.306727 0.300000 0.600000 0.000000
-0.284346 0.056054 0.406289 0.300000 0.000000 0.600000
0.103887 0.056054 -0.094670 0.300000 0.000000 0.600000
0.243574 0.642138 -0.305110 0.000000 1.000000 0.000000
-0.401707 -0.043677 0.407856 0.300000 0.000000 0.600000
0.346082 -0.170800 0.424444 0.600000 0.000000 0.300000
-0.342774 -0.020284 0.108013 0.300000 0.000000 0.600000
-0.379224 -0.709897 0.405784 0.300000 0.000000 0.600000
-0.342324 -0.020284 0.417590 0.300000 0.000000 0.600000
0.009010 0.532448 -0.335074 0.000000 1.000000 0.000000
0.260968 -0.020284 -0.123311 0.300000 0.000000 0.600000
-0.132061 -0.020284 -0.164365 0.300000 0.000000 0.600000
-0.071169 0.711842 -0.334342 0.000000 1.000000 0.000000
-0.421645 0.578913 -0.304714 0.000000 0.000000 1.000000
-0.219100 -0.010425 -0.358624 0.300000 0.000000 0.600000
0.193590 0.605556 -0.335645 0.000000 1.000000 0.000000
-0.033061 -0.020284 -0.156397 0.300000 0.000000 0.600000
-0.144243 -0.020284 -0.047113 0.300000 0.000000 0.600000
-0.049232 0.056054 0.192917 0.300000 0.000000 0.600000
0.377791 -0.119632 -0.280717 0.300000 0.600000 0.000000
-0.391758 -0.059805 -0.358923 0.000000 0.500000 0.500000
0.389055 0.056054 -0.043543 0.300000 0.000000 0.600000
0.236646 0.056054 -0.358504 0.300000 0.000000 0.600000
0.007007 0.562225 -0.305110 0.000000 1.000000 0.000000
-0.392951 0.302382 -0.354661 0.000000 0.000000 1.000000
0.044588 0.532448 -0.319602 0.000000 1.000000 0.000000
0.293199 0.056054 -0.071074 0.300000 0.000000 0.600000
-0.196271 -0.020284 0.226636 0.300000 0.000000 0.600000
-0.401266 -0.751209 -0.356617 0.000000 0.500000 0.500000
-0.107018 -0.020284 -0.324170 0.300000 0.000000 0.600000
0.234086 -0.020284 0.130830 0.300000 0.000000 0.600000
-0.399950 -0.282311 -0.283059 0.000000 0.500000 0.500000
-0.373281 0.103377 -0.355368 0.000000 0.000000 1.000000
0.104415 0.056054 -0.316970 0.300000 0.000000 0.600000
-0.059836 -0.020284 -0.347500 0.300000 0.000000 0.600000
0.248031 0.613156 -0.335645 0.000000 1.000000 0.000000
0.365833 -0.476312 -0.281923 0.300000 0.600000 0.000000
0.062457 -0.012361 0.484030 0.300000 0.000000 0.600000
-0.352541 -0.036375 0.465105 0.300000 0.000000 0.600000
0.409446 -0.557069 -0.344510 0.300000 0.600000 0.000000
-0.420518 -0.187382 0.461035 0.300000 0.000000 0.600000
-0.048803 0.056054 -0.018597 0.300000 0.000000 0.600000
0.116965 0.056054 0.019198 0.300000 0.000000 0.600000
0.337404 -0.020284 0.379458 0.300000 0.000000 0.600000
-0.029071 0.050443 -0.358624 0.300000 0.000000 0.600000
-0.349611 -0.020284 -0.159075 0.300000 0.000000 0.600000
-0.363010 -0.147623 0.480190 0.300000 0.000000 0.600000
-0.343417 -0.395816 -0.333753 0.000000 0.500000 0.500000
0.341648 -0.201362 -0.331439 0.300000 0.600000 0.000000
0.320817 0.056054 -0.292641 0.300000 0.000000 0.600000
-0.006753 0.056054 0.184870 0.300000 0.000000 0.600000
-0.059636 0.056054 0.411811 0.300000 0.000000 0.600000
-0.207082 -0.020284 0.160824 0.300000 0.000000 0.600000
-0.368214 0.677975 -0.358873 0.000000 0.000000 1.000000
0.346264 -0.223940 0.463748 0.600000 0.000000 0.300000
-0.048676 0.543057 -0.305110 0.000000 1.000000 0.000000
0.320748 0.684906 -0.335645 0.000000 1.000000 0.000000
0.290557 -0.020284 -0.345719 0.300000 0.000000 0.600000
0.368407 -0.803639 -0.341723 0.000000 0.500000 0.500000
-0.275178 0.056054 0.002142 0.300000 0.000000 0.600000
-0.368991 -0.511912 -0.358881 0.000000 0.500000 0.500000
-0.225667 -0.020284 0.099540 0.300000 0.000000 0.600000
0.065091 -0.020284 0.004807 0.300000 0.000000 0.600000
0.292765 0.056054 0.152510 0.300000 0.000000 0.600000
-0.107032 -0.020284 0.027000 0.300000 0.000000 0.600000
-0.329307 0.026059 -0.358624 0.300000 0.000000 0.600000
0.164287 0.056054 0.246153 0.300000 0.000000 0.600000
0.393560 -0.803862 0.426190 0.300000 0.600000 0.000000
0.344697 0.211186 -0.299401 0.800000 0.200000 0.500000
-0.259590 -0.020284 -0.087934 0.300000 0.000000 0.600000
0.344813 0.283262 -0.339322 0.800000 0.200000 0.500000
0.005718 -0.020284 -0.063474 0.300000 0.000000 0.600000
0.269822 -0.020284 0.307078 0.300000 0.000000 0.600000
-0.317053 0.630578 -0.335645 0.000000 1.000000 0.000000
0.391728 -0.020284 -0.239639 0.300000 0.000000 0.600000
0.421427 -0.009026 -0.085308 0.300000 0.000000 0.600000
-0.344180 -0.752747 0.443429 0.300000 0.000000 0.600000
-0.359795 -0.227040 0.416516 0.300000 0.000000 0.600000
0.419913 -0.363048 -0.329023 0.300000 0.600000 0.000000
-0.093371 0.056054 0.272853 0.300000 0.000000 0.600000
0.419201 -0.069671 0.457197 0.600000 0.000000 0.300000
0.329397 -0.020284 -0.019940 0.300000 0.000000 0.600000
-0.325344 -0.020284 -0.335452 0.300000 0.000000 0.600000
0.055486 0.056054 -0.079194 0.300000 0.000000 0.600000
-0.421856 0.535646 -0.312197 0.000000 0.000000 1.000000
-0.111593 0.688080 -0.305110 0.000000 1.000000 0.000000
0.347126 0.389411 -0.297743 0.800000 0.200000 0.500000
-0.373624 -0.702205 0.482122 0.300000 0.000000 0.600000
0.183190 0.056054 0.332924 0.300000 0.000000 0.600000
-0.422301 0.004274 -0.027142 0.300000 0.000000 0.600000
-0.354192 -0.020284 0.385006 0.300000 0.000000 0.600000
0.198315 -0.020284 0.259359 0.300000 0.000000 0.600000
-0.409880 -0.020284 -0.071526 0.300000 0.000000 0.600000
0.417351 -0.020284 0.286389 0.300000 0.000000 0.600000
-0.387001 -0.783556 0.457022 0.500000 0.000000 0.500000
0.093711 0.056054 0.411403 0.300000 0.000000 0.600000
-0.406676 -0.020284 0.452890 0.300000 0.000000 0.600000
0.389956 -0.020284 -0.109820 0.300000 0.000000 0.600000
-0.405878 0.744231 -0.314691 0.000000 0.000000 1.000000
0.416030 -0.020284 0.223952 0.300000 0.000000 0.600000
-0.350037 -0.704918 -0.341822 0.000000 0.500000 0.500000
-0.043016 -0.020284 0.106250 0.300000 0.000000 0.600000
0.367176 -0.007501 0.484030 0.300000 0.000000 0.600000
0.068197 -0.020284 0.321310 0.300000 0.000000 0.600000
0.155596 -0.020284 0.233467 0.300000 0.000000 0.600000
0.376498 0.056054 0.356666 0.300000 0.000000 0.600000
-0.409127 -0.112237 -0.292899 0.000000 0.500000 0.500000
0.224832 0.056054 0.238711 0.300000 0.000000 0.600000
0.390800 0.627236 -0.358919 0.800000 0.200000 0.500000
-0.307213 -0.020284 -0.159527 0.300000 0.000000 0.600000
-0.346708 0.280276 -0.310458 0.000000 0.000000 1.000000
-0.322332 -0.020284 0.481754 0.300000 0.000000 0.600000
-0.363037 -0.766937 -0.356387 0.000000 0.500000 0.500000
-0.209420 -0.020284 -0.195514 0.300000 0.000000 0.600000
-0.397408 0.067584 -0.286227 0.000000 0.000000 1.000000
-0.364476 -0.604152 0.482122 0.300000 0.000000 0.600000
0.399198 -0.759970 -0.282347 0.300000 0.600000 0.000000
0.154115 -0.020284 -0.014496 0.300000 0.000000 0.600000
0.361934 -0.641214 0.405879 0.600000 0.000000 0.300000
-0.390340 -0.603840 -0.358935 0.000000 0.500000 0.500000
-0.080638 -0.020284 0.314521 0.300000 0.000000 0.600000
-0.058375 0.671423 -0.305110 0.000000 1.000000 0.000000
0.329357 0.600833 -0.305110 0.000000 1.000000 0.000000
0.398475 -0.020284 -0.316897 0.300000 0.000000 0.600000
0.387562 -0.167924 0.405784 0.600000 0.000000 0.300000
0.268006 0.056054 -0.026259 0.300000 0.000000 0.600000
-0.401667 0.479554 -0.282944 0.000000 0.000000 1.000000
-0.406353 -0.636489 -0.349426 0.000000 0.500000 0.500000
0.419643 -0.736961 -0.335180 0.300000 0.600000 0.000000
0.406938 0.077690 -0.346628 0.800000 0.200000 0.500000
-0.366239 0.161328 -0.281080 0.000000 0.000000 1.000000
-0.372254 0.056054 0.398985 0.300000 0.000000 0.600000
0.377019 -0.695652 0.482122 0.600000 0.000000 0.300000
0.020016 -0.020284 0.023903 0.300000 0.000000 0.600000
0.341525 0.638044 -0.313606 0.800000 0.200000 0.500000
0.196424 0.056054 -0.098020 0.300000 0.000000 0.600000
-0.013203 -0.020284 -0.084694 0.300000 0.000000 0.600000
0.215734 -0.020284 0.314799 0.300000 0.000000 0.600000
-0.420518 -0.377632 0.442600 0.300000 0.000000 0.600000
-0.367221 0.576773 -0.358740 0.000000 0.000000 1.000000
-0.395224 -0.535924 0.405784 0.300000 0.000000 0.600000
0.123695 0.629274 -0.305110 0.000000 1.000000 0.000000
-0.366214 -0.020284 -0.273265 0.300000 0.000000 0.600000
0.391869 -0.131370 -0.358908 0.300000 0.600000 0.000000
-0.102837 0.056054 0.112808 0.300000 0.000000 0.600000
-0.344180 -0.566019 0.451171 0.300000 0.000000 0.600000
0.341524 -0.432586 -0.315731 0.300000 0.600000 0.000000
-0.407110 -0.113025 -0.348281 0.000000 0.500000 0.500000
-0.165559 -0.020284 0.053791 0.300000 0.000000 0.600000
-0.343424 0.659232 -0.333277 0.000000 0.000000 1.000000
-0.348469 0.056054 -0.256204 0.300000 0.000000 0.600000
-0.291958 0.056054 0.480482 0.300000 0.000000 0.600000
0.358858 -0.573732 -0.351977 0.300000 0.600000 0.000000
0.342863 -0.724656 0.442039 0.600000 0.000000 0.300000
0.226267 0.056054 0.135236 0.300000 0.000000 0.600000
0.141424 -0.020284 -0.246672 0.300000 0.000000 0.600000
-0.343740 -0.670740 -0.305798 0.000000 0.500000 0.500000
0.073918 -0.020284 -0.126761 0.300000 0.000000 0.600000
0.207547 0.056054 -0.161831 0.300000 0.000000 0.600000
-0.022780 0.711842 -0.317372 0.000000 1.000000 0.000000
0.410364 -0.020284 -0.135607 0.300000 0.000000 0.600000
-0.345804 -0.562928 -0.300112 0.000000 0.500000 0.500000
0.421427 -0.003541 0.142054 0.300000 0.000000 0.600000
0.412926 -0.238911 0.423665 0.600000 0.000000 0.300000
0.358442 0.686378 -0.286977 0.800000 0.200000 0.500000
-0.191951 -0.020284 -0.174589 0.300000 0.000000 0.600000
-0.041352 -0.020284 0.415604 0.300000 0.000000 0.600000
0.402381 0.165549 -0.353243 0.800000 0.200000 0.500000
-0.309282 0.595931 -0.305110 0.000000 1.000000 0.000000
0.366274 0.457277 -0.358861 0.800000 0.200000 0.500000
0.332115 -0.020284 -0.193570 0.300000 0.000000 0.600000
-0.101544 0.620239 -0.305110 0.000000 1.000000 0.000000
-0.010521 0.056054 0.283884 0.300000 0.000000 0.600000
0.242446 0.056054 0.482173 0.300000 0.000000 0.600000
0.341524 -0.756570 -0.321435 0.300000 0.600000 0.000000
0.419416 0.334311 -0.335647 0.800000 0.200000 0.500000
0.200587 0.056054 -0.314490 0.300000 0.000000 0.600000
-0.072241 0.056054 -0.289540 0.300000 0.000000 0.600000
0.419201 -0.642790 0.457582 0.600000 0.000000 0.300000
-0.415507 -0.792822 -0.318229 0.500000 0.500000 0.000000
-0.166475 -0.020284 0.104968 0.300000 0.000000 0.600000
-0.356419 -0.020284 -0.053866 0.300000 0.000000 0.600000
0.318595 0.056054 0.072179 0.300000 0.000000 0.600000
-0.407762 -0.409641 -0.347354 0.000000 0.500000 0.500000
-0.396336 0.056054 -0.000239 0.300000 0.000000 0.600000
0.170297 0.633280 -0.335645 0.000000 1.000000 0.000000
0.410372 0.056054 0.432495 0.300000 0.000000 0.600000
-0.261511 -0.020284 0.319398 0.300000 0.000000 0.600000
-0.389783 -0.803686 -0.297866 0.500000 0.500000 0.000000
-0.356942 -0.445779 -0.347338 0.000000 0.500000 0.500000
0.309196 0.608865 -0.335645 0.000000 1.000000 0.000000
0.211141 -0.020284 -0.109240 0.300000 0.000000 0.600000
-0.368768 -0.522714 -0.280668 0.000000 0.500000 0.500000
0.245159 -0.020284 0.077280 0.300000 0.000000 0.600000
0.074770 0.056054 0.194872 0.300000 0.000000 0.600000
0.304367 -0.020284 0.289344 0.300000 0.000000 0.600000
-0.121447 -0.020284 0.383028 0.300000 0.000000 0.600000
-0.401925 -0.394907 0.480391 0.300000 0.000000 0.600000
0.131058 0.711842 -0.331885 0.000000 1.000000 0.000000
0.413890 -0.269927 0.463841 0.600000 0.000000 0.300000
0.266528 0.624229 -0.305110 0.000000 1.000000 0.000000
0.233303 0.056054 0.352867 0.300000 0.000000 0.600000
-0.223315 0.561742 -0.335645 0.000000 1.000000 0.000000
-0.324984 0.056054 0.013862 0.300000 0.000000 0.600000
0.193128 0.056054 0.010566 0.300000 0.000000 0.600000
0.400041 -0.020284 0.125378 0.300000 0.000000 0.600000
0.189921 -0.020284 -0.236593 0.300000 0.000000 0.600000
0.247185 0.669375 -0.305110 0.000000 1.000000 0.000000
-0.039478 0.033388 0.484030 0.300000 0.000000 0.600000
0.421427 0.016386 -0.152182 0.300000 0.000000 0.600000
-0.340098 -0.020284 -0.111222 0.300000 0.000000 0.600000
-0.282800 -0.020284 0.042736 0.300000 0.000000 0.600000
-0.395952 -0.020284 -0.045861 0.300000 0.000000 0.600000
-0.025275 -0.020284 0.285955 0.300000 0.000000 0.600000
0.360550 -0.487939 -0.354608 0.300000 0.600000 0.000000
-0.388614 0.056054 0.203389 0.300000 0.000000 0.600000
-0.422301 0.054996 0.007232 0.300000 0.000000 0.600000
0.216495 0.056054 -0.340471 0.300000 0.000000 0.600000
-0.388022 0.524311 -0.280589 0.000000 0.000000 1.000000
0.049535 -0.020284 0.073208 0.300000 0.000000 0.600000
-0.115829 -0.020284 0.108356 0.300000 0.000000 0.600000
0.421427 -0.016554 0.190270 0.300000 0.000000 0.600000
-0.325026 0.056054 0.332815 0.300000 0.000000 0.600000
-0.410502 -0.626741 0.421947 0.300000 0.000000 0.600000
-0.395757 -0.291242 -0.358876 0.000000 0.500000 0.500000
-0.356956 0.512283 -0.296288 0.000000 0.000000 1.000000
-0.364040 0.375894 -0.282101 0.000000 0.000000 1.000000
-0.306128 0.056054 0.308235 0.300000 0.000000 0.600000
0.184115 -0.020284 -0.096385 0.300000 0.000000 0.600000
-0.403716 -0.640358 -0.286470 0.000000 0.500000 0.500000
-0.158147 0.056054 0.195464 0.300000 0.000000 0.600000
-0.265024 -0.020284 -0.123383 0.300000 0.000000 0.600000
-0.253670 0.056054 0.233867 0.300000 0.000000 0.600000
-0.114735 0.056054 0.154806 0.300000 0.000000 0.600000
-0.112721 0.050270 0.484030 0.300000 0.000000 0.600000
-0.382324 0.105713 -0.280585 0.000000 0.000000 1.000000
-0.350776 -0.305833 -0.296545 0.000000 0.500000 0.500000
-0.219909 -0.020284 -0.274918 0.300000 0.000000 0.600000
-0.354150 -0.236815 0.465922 0.300000 0.000000 0.600000
-0.330383 0.056054 -0.096956 0.300000 0.000000 0.600000
0.387494 -0.219670 0.482122 0.600000 0.000000 0.300000
0.302625 0.056054 -0.223023 0.300000 0.000000 0.600000
-0.422301 -0.009802 0.369683 0.300000 0.000000 0.600000
-0.353009 -0.020284 0.204945 0.300000 0.000000 0.600000
-0.407422 -0.714580 0.419584 0.300000 0.000000 0.600000
-0.189881 -0.020284 -0.353383 0.300000 0.000000 0.600000
-0.304787 -0.020284 -0.067611 0.300000 0.000000 0.600000
0.019202 0.566391 -0.335645 0.000000 1.000000 0.000000
0.344497 0.056054 0.142168 0.300000 0.000000 0.600000
-0.344180 -0.102547 0.432013 0.300000 0.000000 0.600000
-0.344180 -0.184825 0.439901 0.300000 0.000000 0.600000
0.383668 0.541750 -0.280590 0.800000 0.200000 0.500000
0.350764 -0.439611 -0.343234 0.300000 0.600000 0.000000
0.378439 -0.020284 0.061255 0.300000 0.000000 0.600000
0.419776 -0.654783 -0.325374 0.300000 0.600000 0.000000
0.356636 0.534873 -0.348799 0.800000 0.200000 0.500000
0.182314 0.566969 -0.305110 0.000000 1.000000 0.000000
-0.422301 -0.006327 -0.192598 0.300000 0.000000 0.600000
0.390264 0.396912 -0.358925 0.800000 0.200000 0.500000
0.359574 -0.735901 0.414881 0.600000 0.000000 0.300000
-0.044345 0.056054 0.037720 0.300000 0.000000 0.600000
0.421427 0.025963 -0.052913 0.300000 0.000000 0.600000
0.352902 -0.456887 0.466305 0.600000 0.000000 0.300000
-0.421738 -0.086030 -0.307490 0.000000 0.500000 0.500000
0.142911 0.056054 0.385698 0.300000 0.000000 0.600000
-0.389477 -0.493707 -0.358935 0.000000 0.500000 0.500000
0.354083 -0.011843 -0.358624 0.300000 0.000000 0.600000
-0.411869 -0.795255 0.432218 0.500000 0.000000 0.500000
0.416154 -0.326819 0.463438 0.600000 0.000000 0.300000
0.112448 -0.020284 -0.152369 0.300000 0.000000 0.600000
-0.219622 -0.020284 0.482909 0.300000 0.000000 0.600000
0.170346 0.597029 -0.305110 0.000000 1.000000 0.000000
0.312838 0.056054 0.370140 0.300000 0.000000 0.600000
-0.391206 -0.100093 0.405784 0.300000 0.000000 0.600000
0.021275 -0.020284 -0.140123 0.300000 0.000000 0.600000
-0.360281 -0.086560 -0.287020 0.000000 0.500000 0.500000
0.395159 -0.020284 -0.343492 0.300000 0.000000 0.600000
0.172193 -0.020284 0.387814 0.300000 0.000000 0.600000
0.150190 0.056054 -0.136596 0.300000 0.000000 0.600000
-0.223000 0.532448 -0.310656 0.000000 1.000000 0.000000
0.123213 -0.020284 -0.305511 0.300000 0.000000 0.600000
0.401068 -0.055431 0.411450 0.600000 0.000000 0.300000
0.036798 -0.020284 0.322390 0.300000 0.000000 0.600000
-0.420833 0.723784 -0.302776 0.000000 0.000000 1.000000
0.365450 -0.391959 -0.358487 0.300000 0.600000 0.000000
0.343693 -0.421513 0.463409 0.600000 0.000000 0.300000
0.160074 0.056054 -0.334810 0.300000 0.000000 0.600000
0.101785 0.056054 0.243537 0.300000 0.000000 0.600000
0.162729 0.056054 0.014811 0.300000 0.000000 0.600000
0.298807 0.056054 0.114550 0.300000 0.000000 0.600000
-0.373177 -0.020284 -0.190744 0.300000 0.000000 0.600000
0.209928 0.056054 -0.070902 0.300000 0.000000 0.600000
0.388131 -0.336010 -0.358934 0.300000 0.600000 0.000000
0.311737 0.541058 -0.305110 0.000000 1.000000 0.000000
0.421427 -0.000620 -0.007526 0.300000 0.000000 0.600000
0.357753 -0.391445 -0.288998 0.300000 0.600000 0.000000
-0.331169 0.608565 -0.335645 0.000000 1.000000 0.000000
-0.306499 -0.020284 -0.254023 0.300000 0.000000 0.600000
0.421427 0.014493 0.099773 0.300000 0.000000 0.600000
-0.083656 0.615044 -0.335645 0.000000 1.000000 0.000000
-0.422301 0.033550 -0.266960 0.300000 0.000000 0.600000
-0.367183 -0.653962 0.405784 0.300000 0.000000 0.600000
0.300841 0.043639 -0.358624 0.300000 0.000000 0.600000
-0.357256 0.565441 -0.305110 0.000000 1.000000 0.000000
