ply
format ascii 1.0
element vertex 1273
property float x
property float y
property float z
property uchar red
property uchar green
property uchar blue
end_header
-0.182651 -0.020284 -0.011367 76 0 153
0.324119 0.056054 0.175435 76 0 153
-0.414159 0.216890 -0.339751 0 0 255
-0.357441 -0.322664 0.468447 76 0 153
-0.344180 -0.484585 0.425411 76 0 153
0.032517 0.019035 -0.358624 76 0 153
-0.028468 0.056054 0.196602 76 0 153
-0.422301 0.017182 0.023243 76 0 153
0.419201 -0.562210 -0.327674 76 153 0
0.342863 -0.273331 -0.316222 76 153 0
-0.112696 0.601821 -0.305110 0 255 0
0.382359 -0.708914 -0.357597 76 153 0
-0.377481 0.694798 -0.335645 0 255 0
0.397804 0.685960 -0.281259 204 51 127
-0.021285 0.056054 0.381516 76 0 153
0.359452 0.620594 -0.348205 204 51 127
0.319721 0.056054 0.360945 76 0 153
0.142412 -0.020284 -0.325416 76 0 153
0.394544 -0.020284 -0.217247 76 0 153
-0.406734 -0.733480 -0.293948 0 127 127
-0.092877 -0.020284 -0.229220 76 0 153
-0.251027 0.593728 -0.305110 0 255 0
0.201875 0.551211 -0.305110 0 255 0
-0.356261 -0.020284 0.010135 76 0 153
-0.272556 -0.020284 -0.037325 76 0 153
-0.344180 -0.512788 -0.320801 0 127 127
-0.273718 -0.020284 0.275049 76 0 153
-0.074717 0.651368 -0.305110 0 255 0
-0.332194 0.056054 0.140043 76 0 153
-0.417407 0.149622 -0.299671 0 0 255
-0.420518 -0.098358 0.428872 76 0 153
0.147568 0.056054 0.167798 76 0 153
0.259743 -0.020284 -0.226425 76 0 153
-0.355931 0.088971 -0.296092 0 0 255
0.421427 -0.016612 0.417175 76 0 153
0.357234 -0.057308 -0.293182 76 153 0
-0.103067 0.056054 -0.011226 76 0 153
0.419201 -0.161388 -0.334656 76 153 0
-0.095424 -0.020284 -0.015256 76 0 153
-0.389679 -0.020284 -0.161907 76 0 153
0.378110 0.479199 -0.281259 204 51 127
-0.019920 -0.020284 -0.172570 76 0 153
0.039533 0.056054 0.046536 76 0 153
-0.214866 0.056054 -0.143625 76 0 153
0.421427 0.007226 0.303282 76 0 153
0.190624 0.662005 -0.305110 0 255 0
0.379718 -0.494213 0.405784 153 0 76
0.139609 0.056054 -0.023705 76 0 153
-0.359094 -0.373855 -0.292905 0 127 127
0.061162 -0.020284 -0.126991 76 0 153
0.381641 0.056054 0.239725 76 0 153
0.298165 -0.020284 0.207363 76 0 153
0.342863 -0.226967 0.434089 153 0 76
0.081768 0.673785 -0.305110 0 255 0
-0.362946 -0.191264 0.479705 76 0 153
-0.128758 -0.020284 0.280256 76 0 153
0.421427 0.019608 -0.198234 76 0 153
0.310055 -0.020284 -0.004661 76 0 153
0.202280 0.056054 -0.171302 76 0 153
0.421427 0.052362 0.296436 76 0 153
-0.077344 -0.020284 -0.102484 76 0 153
0.383116 0.056054 -0.314523 76 0 153
-0.072889 -0.020284 0.451744 76 0 153
0.381279 0.272875 -0.281259 204 51 127
-0.361551 -0.275777 0.413289 76 0 153
0.018751 0.690240 -0.305110 0 255 0
-0.344180 -0.290170 -0.319842 0 127 127
0.299940 -0.020284 -0.207990 76 0 153
-0.422301 0.054952 -0.108582 76 0 153
-0.136972 0.021564 0.484030 76 0 153
0.043959 0.056054 -0.221758 76 0 153
0.350926 0.300141 -0.340457 204 51 127
-0.344180 -0.536152 0.449675 76 0 153
-0.009817 -0.020284 0.250581 76 0 153
-0.387328 0.743096 -0.307432 0 0 255
-0.163273 0.056054 0.365310 76 0 153
0.317759 -0.020284 0.270052 76 0 153
-0.290091 0.056054 0.168211 76 0 153
0.348347 0.428151 -0.299185 204 51 127
-0.305575 0.056054 0.081958 76 0 153
-0.411769 0.311610 -0.340741 0 0 255
-0.358276 -0.152967 -0.293971 0 127 127
0.196227 0.618470 -0.305110 0 255 0
-0.381370 0.056054 0.414085 76 0 153
0.032341 0.056054 0.206430 76 0 153
0.383016 -0.559249 0.482122 153 0 76
0.227589 -0.020284 -0.149671 76 0 153
0.419201 0.137825 -0.319441 204 51 127
-0.010119 0.563805 -0.305110 0 255 0
0.345411 -0.204774 -0.338848 76 153 0
-0.420518 -0.596873 -0.319466 0 127 127
-0.135427 -0.020284 -0.158400 76 0 153
0.001459 -0.020284 0.455388 76 0 153
0.342863 -0.140347 0.443175 153 0 76
-0.034814 -0.020284 0.123552 76 0 153
0.100949 0.056054 0.387129 76 0 153
-0.326831 0.056054 0.230753 76 0 153
0.342863 -0.381595 -0.320136 76 153 0
0.271322 -0.020284 -0.080115 76 0 153
0.383286 -0.020284 0.232140 76 0 153
0.044395 0.056054 0.449188 76 0 153
-0.409950 -0.020284 0.338387 76 0 153
-0.202842 0.056054 -0.323820 76 0 153
-0.185116 0.643149 -0.335645 0 255 0
0.042106 0.643473 -0.335645 0 255 0
-0.383808 -0.464556 -0.281259 0 127 127
-0.136897 -0.020284 0.388537 76 0 153
-0.265140 -0.020284 0.181926 76 0 153
-0.133150 0.674864 -0.305110 0 255 0
0.012451 0.056054 -0.091882 76 0 153
0.361314 -0.651207 -0.284072 76 153 0
0.127898 0.619708 -0.335645 0 255 0
-0.243488 0.056054 0.372333 76 0 153
0.074441 0.007027 0.484030 76 0 153
0.388798 -0.489147 -0.281259 76 153 0
-0.420518 -0.667323 -0.337422 0 127 127
0.327786 0.056054 -0.063356 76 0 153
-0.238776 0.056054 0.233944 76 0 153
0.389391 0.701034 -0.357597 204 51 127
0.354788 -0.478754 0.467752 153 0 76
0.088100 0.056054 0.104710 76 0 153
-0.362898 -0.391781 0.479338 76 0 153
0.353185 -0.732104 -0.296860 76 153 0
0.401488 -0.108024 0.412466 153 0 76
-0.324012 0.589212 -0.335645 0 255 0
0.103289 -0.020284 0.318273 76 0 153
-0.406303 0.516864 -0.345041 0 0 255
0.369856 -0.349485 0.482122 153 0 76
0.260619 0.546010 -0.305110 0 255 0
-0.420518 0.379835 -0.303893 0 0 255
-0.338855 -0.020284 -0.072030 76 0 153
0.342863 0.227671 -0.327048 204 51 127
0.419201 -0.202834 -0.323969 76 153 0
0.306013 -0.020284 -0.164776 76 0 153
-0.403956 -0.575700 0.473344 76 0 153
-0.378497 0.056054 0.189490 76 0 153
-0.344180 0.375668 -0.310959 0 0 255
0.264334 0.056054 -0.287615 76 0 153
-0.323848 0.056054 -0.015018 76 0 153
-0.414616 0.056054 0.251252 76 0 153
-0.353807 0.695702 -0.297722 0 0 255
-0.048339 -0.020284 0.319666 76 0 153
0.335329 -0.020284 0.443646 76 0 153
0.418526 0.607040 -0.300255 204 51 127
-0.313967 -0.020284 -0.275357 76 0 153
0.366760 -0.194892 -0.281259 76 153 0
-0.162160 0.056054 -0.068738 76 0 153
-0.344180 -0.657521 0.444470 76 0 153
-0.410528 -0.622553 0.421968 76 0 153
0.178742 0.056054 -0.296684 76 0 153
0.284003 0.056054 0.440314 76 0 153
-0.011207 -0.020284 0.386136 76 0 153
-0.403283 0.608788 -0.349763 0 0 255
-0.344180 0.509431 -0.318927 0 0 255
0.086265 0.056054 0.440453 76 0 153
-0.094258 -0.020284 0.071611 76 0 153
-0.397091 -0.111840 -0.281259 0 127 127
-0.242719 0.625778 -0.335645 0 255 0
0.227435 0.684129 -0.305110 0 255 0
0.342863 0.141042 -0.335636 204 51 127
0.402177 -0.083429 -0.349254 76 153 0
-0.245542 0.056054 -0.016814 76 0 153
-0.372908 0.056054 -0.151175 76 0 153
-0.259092 -0.020284 -0.241495 76 0 153
-0.398989 0.025483 0.484030 76 0 153
0.020806 0.056054 0.388856 76 0 153
0.041852 0.555490 -0.335645 0 255 0
-0.422301 0.027142 0.426038 76 0 153
0.328423 -0.020284 0.168246 76 0 153
0.372542 0.015146 -0.281259 76 153 0
-0.241617 0.056054 -0.081205 76 0 153
-0.244616 0.021754 0.484030 76 0 153
0.298654 0.047131 -0.358624 76 0 153
-0.077738 0.681680 -0.335645 0 255 0
0.404671 -0.612492 0.469976 153 0 76
-0.397254 0.056054 -0.047235 76 0 153
-0.183141 -0.020284 -0.197138 76 0 153
0.379752 -0.452257 0.405784 153 0 76
-0.381481 0.588883 -0.319278 0 255 0
0.418916 0.244143 -0.338550 204 51 127
0.389025 -0.403557 -0.357597 76 153 0
-0.416936 -0.349646 -0.299609 0 127 127
0.418612 0.056054 0.379123 76 0 153
0.296903 -0.020284 -0.299780 76 0 153
-0.379996 0.156242 -0.281259 0 0 255
0.353746 -0.645959 0.466952 153 0 76
0.389785 -0.803829 -0.294703 0 127 127
-0.230555 0.532448 -0.334553 0 255 0
-0.350950 -0.020284 0.455000 76 0 153
-0.401824 -0.095849 -0.354630 0 127 127
-0.352357 -0.060757 0.422877 76 0 153
-0.191910 -0.020284 0.443126 76 0 153
0.419201 -0.689045 -0.320261 76 153 0
0.408342 -0.020284 -0.131444 76 0 153
-0.267574 0.056054 -0.162688 76 0 153
-0.379228 0.056054 -0.318485 76 0 153
0.421427 0.014727 0.219347 76 0 153
0.129794 0.056054 0.309227 76 0 153
-0.397491 0.432640 -0.281259 0 0 255
0.342863 -0.411422 0.455458 153 0 76
0.271579 -0.020284 -0.134308 76 0 153
0.392025 -0.020284 0.026487 76 0 153
-0.420518 -0.152089 -0.322917 0 127 127
0.155640 -0.020284 -0.126820 76 0 153
0.161815 0.056054 -0.138011 76 0 153
-0.000893 0.670131 -0.335645 0 255 0
-0.255278 0.056054 0.098742 76 0 153
0.008637 -0.020284 -0.123184 76 0 153
0.341068 0.056054 -0.239018 76 0 153
0.400315 -0.084643 -0.282765 76 153 0
-0.383610 -0.212969 0.405784 76 0 153
-0.381481 0.655042 -0.318825 0 255 0
-0.001090 0.056054 -0.286312 76 0 153
-0.417439 0.175666 -0.338918 0 0 255
-0.402675 -0.020284 0.100003 76 0 153
-0.132080 -0.020284 -0.265918 76 0 153
0.402570 0.541411 -0.348304 204 51 127
-0.419324 0.296670 -0.299923 0 0 255
0.342863 0.072871 -0.315520 204 51 127
-0.393751 -0.031379 -0.281259 0 127 127
-0.203179 0.056054 0.441750 76 0 153
-0.185536 0.056054 0.232719 76 0 153
-0.370751 -0.803854 0.468319 127 0 127
-0.333004 -0.020284 0.131665 76 0 153
0.299835 -0.020284 0.125222 76 0 153
-0.297080 0.056054 0.441774 76 0 153
0.303801 0.018866 0.484030 76 0 153
-0.386328 -0.129526 0.405784 76 0 153
-0.361398 -0.364074 0.413659 76 0 153
0.421427 0.020967 -0.020391 76 0 153
0.031035 -0.020284 -0.264698 76 0 153
-0.052533 0.056054 0.454682 76 0 153
-0.150327 -0.020284 -0.084371 76 0 153
0.355945 0.702958 -0.330363 0 255 0
0.154405 -0.020284 0.002570 76 0 153
-0.038856 0.056054 0.094409 76 0 153
-0.316179 -0.020284 0.291457 76 0 153
0.140935 0.548244 -0.305110 0 255 0
0.146107 -0.020284 0.463390 76 0 153
-0.387443 0.016123 -0.281259 0 0 255
-0.208748 0.056054 0.139259 76 0 153
0.090700 -0.020284 -0.334900 76 0 153
0.121324 0.056054 0.075222 76 0 153
-0.379480 0.056054 0.063968 76 0 153
0.401954 0.103849 -0.349792 204 51 127
0.310299 0.056054 -0.212231 76 0 153
-0.061692 0.056054 -0.342344 76 0 153
0.419201 -0.111032 0.449120 153 0 76
-0.376666 -0.378955 -0.357597 0 127 127
-0.356041 -0.121888 0.467374 76 0 153
0.262769 0.572780 -0.335645 0 255 0
0.360166 -0.373703 0.413453 153 0 76
0.398433 -0.710186 0.405784 153 0 76
-0.385727 -0.084460 0.482122 76 0 153
0.377714 0.096226 -0.281259 204 51 127
-0.154733 0.711842 -0.306629 0 255 0
0.093380 0.056054 -0.091032 76 0 153
0.396296 -0.229986 0.482122 153 0 76
-0.199125 -0.020284 -0.313531 76 0 153
-0.270476 0.570799 -0.335645 0 255 0
0.421427 0.054414 -0.124295 76 0 153
0.412861 -0.303768 0.464267 153 0 76
0.045077 -0.020284 0.444689 76 0 153
0.016910 -0.020284 -0.321649 76 0 153
0.252832 -0.020284 -0.281238 76 0 153
-0.174790 0.056054 0.286006 76 0 153
-0.391029 -0.765530 0.405784 76 0 153
0.349428 -0.687212 -0.339837 76 153 0
-0.070649 0.535594 -0.335645 0 255 0
0.034629 0.056054 0.138381 76 0 153
0.136850 -0.020284 -0.265288 76 0 153
0.364174 0.480961 -0.357597 204 51 127
0.257980 -0.020284 0.210469 76 0 153
-0.223792 -0.020284 -0.170742 76 0 153
-0.399019 -0.803604 -0.323545 127 127 0
-0.036023 0.575155 -0.335645 0 255 0
-0.050416 -0.020284 -0.296257 76 0 153
-0.397061 0.056054 -0.189700 76 0 153
0.199192 -0.020284 -0.121012 76 0 153
0.352985 -0.472569 -0.341514 76 153 0
0.360844 0.611881 -0.286611 204 51 127
-0.380067 -0.292450 0.482122 76 0 153
0.240962 0.056054 -0.246912 76 0 153
0.370064 0.521723 -0.281259 204 51 127
-0.199472 0.664873 -0.305110 0 255 0
0.211676 -0.020284 -0.074706 76 0 153
0.300398 0.056054 0.226739 76 0 153
0.411293 -0.588490 -0.298464 76 153 0
-0.420518 -0.749013 0.463197 76 0 153
-0.241777 -0.020284 0.334702 76 0 153
-0.422301 0.018726 0.280215 76 0 153
0.066533 0.711842 -0.306140 0 255 0
0.421427 0.015482 -0.158508 76 0 153
0.404247 -0.437133 0.470529 153 0 76
-0.261899 0.020083 -0.358624 76 0 153
-0.408618 -0.044044 -0.342878 0 127 127
-0.089926 -0.020284 -0.324637 76 0 153
0.250524 0.623866 -0.305110 0 255 0
0.366628 -0.573677 -0.281259 76 153 0
0.400254 -0.326784 0.406829 153 0 76
0.023818 -0.020284 -0.202409 76 0 153
0.175606 -0.020284 0.193971 76 0 153
-0.403389 0.471402 -0.288666 0 0 255
0.418460 -0.560864 0.424771 153 0 76
0.372646 0.372264 -0.357597 204 51 127
-0.227483 0.056054 0.304362 76 0 153
-0.389606 -0.708374 -0.357597 0 127 127
0.132915 0.056054 -0.079860 76 0 153
-0.398525 -0.297268 0.405784 76 0 153
-0.086437 0.618815 -0.335645 0 255 0
0.255243 -0.020284 0.401322 76 0 153
-0.314717 -0.020284 -0.324721 76 0 153
-0.364068 -0.663807 0.482122 76 0 153
-0.385874 -0.545535 -0.281259 0 127 127
0.077171 0.016557 -0.358624 76 0 153
0.106332 0.679169 -0.335645 0 255 0
-0.396943 -0.704642 0.405784 76 0 153
0.179787 -0.020284 -0.250807 76 0 153
0.396547 -0.414752 0.405784 153 0 76
-0.244062 0.655484 -0.305110 0 255 0
-0.410924 0.056054 -0.261926 76 0 153
-0.180818 -0.020284 0.077419 76 0 153
0.279136 0.709200 -0.305110 0 255 0
-0.123475 -0.020284 0.120250 76 0 153
0.391260 -0.056823 0.405784 153 0 76
-0.346784 -0.642618 -0.338856 0 127 127
0.044929 -0.020284 0.078687 76 0 153
-0.212347 -0.020284 -0.119739 76 0 153
-0.308485 -0.020284 -0.192038 76 0 153
-0.014133 0.009644 0.484030 76 0 153
-0.235466 -0.020284 0.034713 76 0 153
0.230827 -0.020284 0.027156 76 0 153
-0.420518 -0.289132 -0.303112 0 127 127
-0.376838 -0.020284 -0.320502 76 0 153
0.267823 -0.020284 -0.018867 76 0 153
-0.067067 -0.020284 0.400017 76 0 153
0.421427 0.023398 -0.074738 76 0 153
-0.402567 -0.242719 -0.351492 0 127 127
-0.415960 -0.709567 0.463901 76 0 153
-0.028479 0.638972 -0.305110 0 255 0
-0.398259 -0.345674 0.405784 76 0 153
-0.283417 0.056054 -0.093706 76 0 153
0.102762 0.614945 -0.305110 0 255 0
0.178951 -0.020284 0.062670 76 0 153
-0.420518 -0.555870 -0.305389 0 127 127
-0.144727 0.569295 -0.305110 0 255 0
-0.345254 -0.192681 -0.338654 0 127 127
-0.422301 0.031607 -0.295267 76 0 153
0.121177 -0.020284 0.249701 76 0 153
0.126144 0.056054 -0.211765 76 0 153
-0.175938 0.025118 0.484030 76 0 153
-0.087558 -0.020284 0.254771 76 0 153
0.361284 -0.136112 -0.352627 76 153 0
0.189007 0.023527 0.484030 76 0 153
-0.420518 -0.239924 0.441563 76 0 153
-0.344180 -0.305367 0.434610 76 0 153
0.421427 -0.020152 0.332179 76 0 153
-0.331572 0.036293 0.484030 76 0 153
-0.353020 -0.020284 -0.030310 76 0 153
0.203430 0.683990 -0.335645 0 255 0
-0.091494 0.056054 -0.231270 76 0 153
0.254891 -0.020284 0.141629 76 0 153
0.419201 -0.688889 0.430721 153 0 76
-0.136688 0.056054 -0.331386 76 0 153
0.136551 0.056054 0.371735 76 0 153
0.239438 -0.020284 0.335873 76 0 153
-0.381782 0.056054 -0.227102 76 0 153
0.416634 -0.186840 0.424530 153 0 76
0.399335 0.655479 -0.357597 204 51 127
-0.422301 0.016794 -0.222566 76 0 153
-0.178340 0.056054 0.009943 76 0 153
0.342863 -0.058093 0.450166 153 0 76
0.387843 0.056054 -0.196481 76 0 153
0.417409 0.176078 -0.338749 204 51 127
0.327195 0.056054 -0.281227 76 0 153
-0.401711 0.658919 -0.281363 0 0 255
-0.229717 0.710648 -0.335645 0 255 0
-0.054659 -0.020284 -0.009875 76 0 153
-0.316208 0.647448 -0.305110 0 255 0
0.134534 -0.020284 0.082953 76 0 153
0.264547 0.015915 -0.358624 76 0 153
-0.048332 -0.020284 0.276440 76 0 153
0.334459 -0.020284 -0.275723 76 0 153
-0.314942 0.696403 -0.305110 0 255 0
0.384125 -0.287711 0.405784 153 0 76
-0.193829 -0.020284 -0.048048 76 0 153
-0.420518 -0.414546 -0.325132 0 127 127
0.407299 -0.020284 0.091427 76 0 153
-0.415400 -0.020284 0.254950 76 0 153
-0.337797 -0.020284 -0.238391 76 0 153
0.360906 -0.141276 0.476920 153 0 76
0.380260 -0.634436 -0.357597 76 153 0
0.414865 0.361350 -0.339084 204 51 127
-0.289280 -0.020284 0.215282 76 0 153
0.350355 -0.172451 0.423161 153 0 76
-0.069902 0.056054 -0.296939 76 0 153
0.135902 0.056054 0.266556 76 0 153
0.342863 -0.328687 0.453568 153 0 76
-0.409220 -0.631182 -0.342417 0 127 127
-0.198397 0.604321 -0.335645 0 255 0
-0.265111 0.683813 -0.335645 0 255 0
-0.420518 0.542272 -0.308881 0 0 255
0.147525 0.707259 -0.305110 0 255 0
0.071589 -0.020284 0.387921 76 0 153
-0.180333 0.056054 0.105799 76 0 153
-0.364687 -0.226158 -0.281259 0 127 127
0.370282 -0.331952 -0.357597 76 153 0
-0.163164 -0.020284 0.358588 76 0 153
-0.127464 0.056054 -0.160181 76 0 153
0.374616 0.173315 -0.357597 204 51 127
-0.177722 0.564336 -0.335645 0 255 0
-0.074291 0.056054 0.379662 76 0 153
-0.049240 0.056054 0.037430 76 0 153
0.362133 -0.451952 -0.281259 76 153 0
-0.345049 0.327032 -0.338627 0 0 255
0.062064 -0.020284 -0.176503 76 0 153
-0.399552 -0.547227 0.405784 76 0 153
-0.087280 -0.020284 0.156290 76 0 153
0.363336 0.342373 -0.281259 204 51 127
-0.420518 -0.650878 0.455421 76 0 153
-0.279537 0.056054 0.246638 76 0 153
0.249486 0.056054 -0.040069 76 0 153
0.290889 0.056054 -0.082666 76 0 153
-0.001388 0.606787 -0.305110 0 255 0
0.119530 0.056054 -0.157193 76 0 153
0.183992 0.056054 0.112674 76 0 153
0.358909 -0.033667 -0.347428 76 153 0
0.421427 0.018402 0.370871 76 0 153
0.018333 0.056054 0.284807 76 0 153
0.408285 0.056054 0.159694 76 0 153
0.001536 0.056054 0.229853 76 0 153
-0.390851 0.339055 -0.357597 0 0 255
-0.363250 0.356268 -0.281367 0 0 255
0.071623 0.532448 -0.334140 0 255 0
-0.360344 -0.701231 -0.291276 0 127 127
-0.247259 -0.020284 -0.323793 76 0 153
-0.144762 0.056054 0.414560 76 0 153
0.405753 -0.409694 -0.294790 76 153 0
0.402602 -0.748154 0.472750 153 0 76
0.189432 0.056054 -0.257186 76 0 153
-0.017959 0.056054 -0.216024 76 0 153
-0.361521 0.056054 0.382206 76 0 153
-0.362801 0.665277 -0.354077 0 0 255
-0.059928 -0.020284 0.051814 76 0 153
0.386241 -0.020284 0.455493 153 0 76
-0.420518 -0.584318 0.433745 76 0 153
-0.172156 0.056054 0.194671 76 0 153
0.421427 0.001337 -0.296852 76 0 153
0.263916 0.056054 0.404364 76 0 153
0.340623 -0.007008 0.484030 76 0 153
0.303216 0.678297 -0.305110 0 255 0
0.418209 -0.764249 -0.338643 76 153 0
0.150737 0.578259 -0.335645 0 255 0
0.400502 0.395468 -0.284186 204 51 127
-0.296579 0.056054 0.398753 76 0 153
0.386068 -0.020284 0.359359 76 0 153
0.399918 -0.519270 0.482122 153 0 76
-0.391277 -0.315078 -0.357597 0 127 127
-0.362990 -0.414982 -0.355508 0 127 127
-0.161705 -0.020284 -0.123761 76 0 153
0.213205 0.036706 -0.358624 76 0 153
0.391923 -0.153810 0.405784 153 0 76
0.247839 0.674270 -0.335645 0 255 0
0.421427 0.044691 -0.259907 76 0 153
0.355945 0.636982 -0.313541 0 255 0
-0.389238 -0.020284 0.444326 76 0 153
-0.162773 -0.020284 -0.325314 76 0 153
-0.388960 -0.654238 -0.281259 0 127 127
0.156281 0.012475 -0.358624 76 0 153
-0.413418 -0.020284 -0.236687 76 0 153
0.376496 0.056054 0.481965 76 0 153
0.421427 0.020249 0.446260 76 0 153
0.391135 -0.271362 0.482122 153 0 76
0.035409 0.576843 -0.305110 0 255 0
-0.156497 -0.020284 0.255805 76 0 153
-0.405739 -0.803544 0.456392 127 0 127
0.342863 -0.061577 -0.327993 76 153 0
-0.001874 -0.020284 0.100514 76 0 153
0.308567 -0.020284 0.034396 76 0 153
0.377260 -0.020284 -0.181566 76 0 153
0.342863 0.199768 -0.301234 204 51 127
-0.401471 -0.425821 0.406069 76 0 153
-0.394594 -0.631040 0.482122 76 0 153
0.068159 -0.020284 -0.260587 76 0 153
-0.224770 0.056054 0.410331 76 0 153
0.070353 0.056054 -0.252187 76 0 153
0.234224 0.056054 0.035433 76 0 153
-0.109922 0.055243 -0.358624 76 0 153
0.281741 0.688935 -0.335645 0 255 0
0.402576 0.020130 0.482563 76 0 153
0.332111 -0.020284 -0.227477 76 0 153
0.392126 -0.228061 -0.357597 76 153 0
-0.166758 0.056054 -0.257097 76 0 153
-0.401764 -0.265923 -0.281773 0 127 127
0.244375 -0.020284 0.261497 76 0 153
0.135182 -0.020284 0.136200 76 0 153
0.366532 -0.394678 0.482122 153 0 76
0.085838 0.056054 0.313317 76 0 153
-0.042343 -0.020284 -0.089436 76 0 153
-0.023796 -0.020284 -0.032992 76 0 153
-0.344180 0.117216 -0.320207 0 0 255
-0.113047 -0.020284 0.451683 76 0 153
-0.388111 0.272344 -0.357597 0 0 255
-0.422301 -0.008063 0.415103 76 0 153
0.364861 0.214133 -0.357597 204 51 127
0.387360 -0.330621 -0.281259 76 153 0
0.014702 0.056054 0.078046 76 0 153
-0.035893 0.056054 -0.044688 76 0 153
0.361890 -0.763684 0.406222 153 0 76
0.419201 0.723217 -0.334761 204 51 127
-0.362962 -0.578498 -0.283557 0 127 127
-0.079394 0.056054 0.148615 76 0 153
0.393308 0.197032 -0.281259 204 51 127
-0.422301 0.020137 -0.028219 76 0 153
-0.097691 -0.020284 0.328565 76 0 153
-0.422301 0.022467 0.072793 76 0 153
-0.223547 -0.020284 0.257780 76 0 153
0.417105 0.591062 -0.338789 204 51 127
0.345601 0.577556 -0.299720 0 255 0
0.383636 0.743096 -0.319881 204 51 127
-0.370347 -0.173528 -0.357597 0 127 127
0.365253 -0.290530 -0.357597 76 153 0
-0.344180 -0.357177 -0.329329 0 127 127
-0.200813 0.056054 0.375642 76 0 153
0.342863 0.370129 -0.307520 204 51 127
0.128618 -0.020284 0.209201 76 0 153
0.364213 -0.205078 0.482122 153 0 76
0.419201 -0.047341 0.458404 153 0 76
0.171120 0.056054 0.200696 76 0 153
-0.111917 0.056054 0.208619 76 0 153
-0.349845 0.166973 -0.339464 0 0 255
0.416385 -0.520884 -0.338883 76 153 0
-0.214285 -0.020284 0.380302 76 0 153
-0.320750 0.608588 -0.305110 0 255 0
-0.231775 0.056054 0.051367 76 0 153
0.230595 0.056054 0.132587 76 0 153
-0.375139 -0.343468 -0.281259 0 127 127
0.261865 -0.020284 0.055764 76 0 153
0.369565 0.416012 -0.357597 204 51 127
0.134007 -0.020284 -0.065292 76 0 153
-0.201604 -0.020284 -0.253281 76 0 153
0.151597 0.629676 -0.305110 0 255 0
0.253104 0.056054 -0.322047 76 0 153
-0.396468 0.716637 -0.357597 0 0 255
-0.363829 0.056054 -0.009887 76 0 153
-0.420518 0.589548 -0.300997 0 0 255
0.342863 -0.306715 -0.301793 76 153 0
0.239688 0.056054 -0.129289 76 0 153
-0.164472 0.056054 -0.142199 76 0 153
-0.347398 -0.736856 0.463461 76 0 153
0.109247 0.056054 0.168937 76 0 153
-0.420518 0.113146 -0.304193 0 0 255
-0.366211 0.456738 -0.357597 0 0 255
0.412655 -0.159332 0.464353 153 0 76
-0.266438 0.627242 -0.305110 0 255 0
-0.389127 -0.020284 0.201637 76 0 153
-0.344180 -0.432150 -0.319264 0 127 127
-0.226936 -0.020284 0.073561 76 0 153
0.072266 -0.020284 0.105144 76 0 153
-0.322879 -0.020284 -0.117556 76 0 153
0.407947 0.056054 0.427923 76 0 153
0.078197 -0.020284 0.460953 76 0 153
0.395533 -0.630479 0.405784 153 0 76
0.405982 -0.020284 0.160189 76 0 153
0.062648 0.056054 0.272108 76 0 153
-0.212483 0.557003 -0.305110 0 255 0
-0.390479 -0.489972 0.482122 76 0 153
0.177218 0.056054 -0.212773 76 0 153
-0.420518 0.645497 -0.329418 0 0 255
0.400156 0.545832 -0.281561 204 51 127
-0.344180 -0.619767 0.430596 76 0 153
-0.362907 -0.301791 -0.283973 0 127 127
0.238511 0.605508 -0.335645 0 255 0
0.071055 0.056054 -0.026996 76 0 153
0.279360 -0.019335 -0.358624 76 0 153
0.161170 0.056054 0.421520 76 0 153
0.171072 0.569327 -0.305110 0 255 0
0.358873 -0.555858 -0.347381 76 153 0
0.057144 0.056054 -0.328453 76 0 153
-0.325193 0.056054 -0.176148 76 0 153
-0.375595 -0.158014 0.482122 76 0 153
-0.325442 -0.001021 0.484030 76 0 153
-0.377109 -0.622091 -0.357597 0 127 127
0.310708 -0.020284 -0.334691 76 0 153
-0.401816 -0.352615 -0.354696 0 127 127
0.365494 -0.248961 -0.281259 76 153 0
0.342863 -0.610309 0.452732 153 0 76
0.292561 0.639900 -0.305110 0 255 0
0.215844 -0.020284 0.477060 76 0 153
0.103631 0.056054 0.472419 76 0 153
0.343598 -0.543094 0.463397 153 0 76
0.342863 -0.446818 0.452519 153 0 76
-0.265676 -0.020284 -0.108185 76 0 153
0.421427 0.016684 0.128025 76 0 153
-0.344180 0.713889 -0.327672 0 255 0
-0.397516 0.431024 -0.357597 0 0 255
0.060003 0.645756 -0.305110 0 255 0
0.046773 0.056054 -0.176393 76 0 153
-0.110328 0.056054 0.308237 76 0 153
0.381523 -0.020284 0.115710 76 0 153
-0.344180 -0.481538 -0.337444 0 127 127
-0.420518 0.247836 -0.306828 0 0 255
-0.338353 0.056054 -0.276813 76 0 153
-0.363053 -0.355417 0.480517 76 0 153
-0.420518 -0.402999 0.430577 76 0 153
-0.395316 0.056054 0.370652 76 0 153
-0.119754 0.056054 0.053898 76 0 153
0.395842 -0.644342 -0.281259 76 153 0
-0.064276 0.056054 -0.130688 76 0 153
-0.372281 -0.596191 0.482122 76 0 153
-0.422301 0.008978 0.322725 76 0 153
-0.420518 0.474317 -0.328563 0 0 255
-0.420518 -0.315363 0.462669 76 0 153
0.230280 -0.020284 -0.195971 76 0 153
0.391408 0.056054 0.323973 76 0 153
0.391604 -0.134162 -0.281259 76 153 0
0.293599 0.056054 0.094529 76 0 153
0.311733 -0.020284 0.375109 76 0 153
-0.414873 -0.482158 -0.299119 0 127 127
0.375622 -0.020284 -0.004633 76 0 153
-0.099947 -0.020284 -0.193046 76 0 153
-0.330976 0.056054 0.451113 76 0 153
-0.081514 -0.011675 -0.358624 76 0 153
-0.306620 -0.020284 0.012806 76 0 153
0.274088 0.648008 -0.335645 0 255 0
-0.304500 -0.020284 -0.055408 76 0 153
-0.039416 0.005655 -0.358624 76 0 153
0.374973 -0.704510 -0.281259 76 153 0
0.400259 -0.581700 -0.356514 76 153 0
0.419201 0.439622 -0.337269 204 51 127
0.308519 0.547169 -0.305110 0 255 0
-0.370178 0.723367 -0.281259 0 0 255
-0.344180 0.007839 -0.327227 0 0 255
0.415461 -0.677230 0.463530 153 0 76
-0.138529 0.631556 -0.335645 0 255 0
0.181385 -0.020284 0.262992 76 0 153
-0.353008 -0.449842 0.422607 76 0 153
-0.297370 0.542066 -0.305110 0 255 0
-0.367791 -0.777906 -0.357597 127 127 0
-0.122484 -0.020284 0.197276 76 0 153
0.056713 0.587868 -0.335645 0 255 0
0.156091 0.011747 0.484030 76 0 153
-0.301366 0.664463 -0.335645 0 255 0
-0.401822 -0.370647 0.481171 76 0 153
0.342863 -0.187064 -0.305508 76 153 0
0.176380 -0.020284 0.445984 76 0 153
-0.320614 0.056054 -0.051070 76 0 153
-0.342055 -0.020284 0.263065 76 0 153
0.034686 -0.020284 0.018161 76 0 153
-0.344180 -0.397857 0.437817 76 0 153
-0.401971 -0.620015 -0.283344 0 127 127
-0.398353 0.056054 0.325148 76 0 153
-0.420518 -0.473302 0.426651 76 0 153
-0.107235 0.567465 -0.305110 0 255 0
-0.017056 0.674037 -0.305110 0 255 0
-0.420518 -0.075238 -0.331319 0 127 127
0.336174 -0.009932 -0.358624 76 0 153
-0.346116 0.253549 -0.338768 0 0 255
0.421427 0.044622 -0.331433 204 51 127
0.394867 -0.020284 -0.259798 76 0 153
0.234513 -0.020284 -0.007415 76 0 153
0.405168 -0.803966 0.430860 76 153 0
-0.397892 -0.020284 -0.113018 76 0 153
-0.422301 0.018841 0.176948 76 0 153
-0.420518 -0.679456 -0.302898 0 127 127
-0.046069 -0.020284 0.204164 76 0 153
0.345261 -0.020284 -0.117695 76 0 153
-0.344180 -0.780365 0.425031 127 0 127
-0.361659 -0.028810 -0.350351 0 0 255
-0.420518 -0.273146 0.430440 76 0 153
-0.048495 0.056054 0.275413 76 0 153
0.382334 0.056054 -0.231092 76 0 153
-0.375016 -0.500065 0.405784 76 0 153
0.040874 -0.020284 0.372179 76 0 153
0.107104 0.565904 -0.305110 0 255 0
-0.156477 0.056054 -0.211900 76 0 153
0.015755 0.621278 -0.335645 0 255 0
-0.366509 -0.760945 0.482122 76 0 153
-0.344180 -0.253695 0.438012 76 0 153
-0.364472 0.304508 -0.281259 0 0 255
0.351481 0.056054 -0.088303 76 0 153
0.009465 0.543958 -0.335645 0 255 0
-0.400301 -0.741474 -0.357597 0 127 127
0.333680 0.056054 -0.141461 76 0 153
-0.344180 -0.087107 -0.329280 0 127 127
0.327486 0.535152 -0.335645 0 255 0
-0.131267 0.056054 0.352830 76 0 153
-0.420518 0.090500 -0.331539 0 0 255
0.363724 -0.562806 0.405784 153 0 76
0.379112 -0.783580 -0.321027 0 127 127
-0.314937 -0.020284 0.423439 76 0 153
0.342863 -0.349470 -0.332061 76 153 0
0.391128 0.056054 0.358412 76 0 153
-0.012648 0.056054 -0.116648 76 0 153
0.081826 0.056054 -0.125753 76 0 153
-0.402170 -0.418352 -0.284850 0 127 127
-0.024291 0.056054 -0.003807 76 0 153
-0.344180 0.184332 -0.307696 0 0 255
-0.394377 0.567870 -0.357597 0 0 255
-0.419031 0.732749 -0.299885 0 0 255
0.421427 0.049300 0.024451 76 0 153
-0.052063 0.711842 -0.335348 0 255 0
-0.344180 -0.322879 -0.335809 0 127 127
0.342863 0.736223 -0.304821 204 51 127
0.212461 0.056054 -0.093238 76 0 153
-0.354328 -0.149295 0.421846 76 0 153
-0.344180 -0.185144 0.432324 76 0 153
0.162527 0.056054 -0.329033 76 0 153
0.242251 0.056054 0.237787 76 0 153
0.372877 -0.100216 0.482122 153 0 76
0.400409 -0.331377 0.479899 153 0 76
-0.419482 -0.100997 0.463437 76 0 153
0.315288 0.624107 -0.335645 0 255 0
-0.340187 -0.020284 0.074813 76 0 153
0.419201 -0.532218 -0.306872 76 153 0
0.402528 0.070327 -0.290451 204 51 127
-0.375175 -0.184887 -0.281259 0 127 127
-0.365275 0.252547 -0.281259 0 0 255
0.349016 -0.020284 0.331283 76 0 153
0.396066 -0.039050 0.482122 153 0 76
0.342863 -0.103451 0.429820 153 0 76
-0.245239 0.056054 0.191030 76 0 153
0.419201 -0.028591 -0.323276 76 153 0
0.082703 0.706972 -0.335645 0 255 0
-0.393690 -0.254829 0.482122 76 0 153
-0.063356 0.056054 0.220754 76 0 153
-0.268108 0.056054 -0.215754 76 0 153
-0.376200 -0.020284 0.319888 76 0 153
0.419201 -0.297590 -0.327709 76 153 0
0.352347 -0.407102 -0.341046 76 153 0
-0.344180 -0.714330 0.431352 76 0 153
0.420554 -0.020284 0.231650 76 0 153
0.179505 -0.020284 -0.325085 76 0 153
-0.200456 0.056054 -0.180716 76 0 153
-0.341467 -0.020284 -0.157313 76 0 153
0.407564 0.056054 -0.080182 76 0 153
0.368087 -0.803637 0.422393 76 153 0
0.419201 -0.577724 0.456521 153 0 76
0.369411 -0.222441 0.405784 153 0 76
-0.344180 -0.467864 0.455086 76 0 153
-0.229600 -0.020284 0.144343 76 0 153
-0.286530 0.056054 -0.134682 76 0 153
0.203474 -0.020284 -0.025344 76 0 153
-0.296559 0.056054 0.034354 76 0 153
0.334869 0.056054 0.017414 76 0 153
-0.363146 -0.570287 0.406683 76 0 153
0.342863 -0.765581 -0.305114 76 153 0
-0.396295 0.056054 -0.083018 76 0 153
-0.344180 -0.213327 0.462335 76 0 153
-0.120150 0.641867 -0.305110 0 255 0
0.342863 -0.240141 -0.331584 76 153 0
0.342863 -0.705394 0.432989 153 0 76
-0.254217 0.056054 0.026162 76 0 153
0.343146 -0.020284 0.401207 76 0 153
0.129623 0.711259 -0.335645 0 255 0
-0.403882 -0.512412 -0.348317 0 127 127
0.039237 -0.020284 0.151922 76 0 153
0.227990 0.568459 -0.335645 0 255 0
0.070875 -0.020284 -0.077381 76 0 153
0.013166 0.056054 0.461870 76 0 153
0.342863 0.149703 -0.302871 204 51 127
-0.384938 -0.020284 -0.202439 76 0 153
-0.295118 -0.020284 0.058449 76 0 153
0.419201 0.658986 -0.306033 204 51 127
-0.405145 -0.175884 0.416830 76 0 153
-0.020730 -0.020284 -0.326153 76 0 153
0.391862 -0.020284 0.287511 76 0 153
-0.130649 -0.020284 -0.000828 76 0 153
-0.422301 0.021719 -0.103477 76 0 153
-0.187472 0.056054 0.318693 76 0 153
0.217984 0.056054 -0.006217 76 0 153
-0.395466 -0.456400 -0.357597 0 127 127
0.203260 0.056054 0.301885 76 0 153
-0.276040 -0.020284 0.449137 76 0 153
-0.401674 0.683080 -0.355768 0 0 255
0.154788 0.056054 -0.105255 76 0 153
0.398966 -0.051231 -0.281259 76 153 0
-0.420518 -0.062815 0.428086 76 0 153
0.419201 0.205569 -0.322600 204 51 127
-0.348166 -0.068463 -0.299819 0 127 127
-0.420518 0.327605 -0.312551 0 0 255
-0.279455 0.532448 -0.333057 0 255 0
-0.381481 0.621626 -0.327934 0 255 0
-0.026079 0.056054 -0.182635 76 0 153
0.370150 -0.678040 0.482122 153 0 76
0.301865 0.582517 -0.335645 0 255 0
-0.132006 0.056054 -0.275069 76 0 153
-0.034602 0.593778 -0.305110 0 255 0
0.192048 0.056054 0.358707 76 0 153
0.346706 0.056054 0.300821 76 0 153
0.372374 0.035281 -0.358624 76 0 153
-0.201874 0.056054 -0.018916 76 0 153
-0.368863 0.631921 -0.357597 0 0 255
-0.344152 0.056054 0.265351 76 0 153
0.394907 0.352862 -0.281259 204 51 127
0.242237 -0.020284 0.104681 76 0 153
-0.420518 -0.136567 0.461542 76 0 153
0.118424 -0.020284 0.445044 76 0 153
0.397393 -0.260832 -0.357597 76 153 0
0.294693 0.056054 0.190750 76 0 153
0.361318 0.554260 -0.352814 204 51 127
0.387970 -0.157553 -0.357597 76 153 0
-0.379861 0.535543 -0.305110 0 255 0
-0.116664 0.056054 -0.093073 76 0 153
0.419201 -0.108174 -0.335247 76 153 0
-0.222144 -0.020284 0.211698 76 0 153
0.342863 -0.772078 0.462329 153 0 76
0.357365 -0.803361 -0.305859 0 127 127
0.393064 0.615443 -0.357597 204 51 127
-0.344180 -0.730502 -0.333043 0 127 127
-0.422301 -0.012595 -0.164455 76 0 153
-0.344180 0.560097 -0.338447 0 0 255
-0.209264 -0.020284 0.008209 76 0 153
0.304559 -0.020284 -0.084825 76 0 153
0.342863 -0.589022 -0.337811 76 153 0
-0.150171 0.534669 -0.305110 0 255 0
-0.387925 0.081207 -0.281259 0 0 255
0.027429 0.711842 -0.330691 0 255 0
0.395353 -0.020284 -0.038688 76 0 153
-0.217403 0.056054 -0.108737 76 0 153
0.346971 0.015688 -0.339054 204 51 127
0.142763 0.056054 0.452784 76 0 153
-0.344180 0.479210 -0.300431 0 0 255
-0.407130 -0.083445 -0.294464 0 127 127
0.367946 -0.664912 -0.357597 76 153 0
0.398094 0.724826 -0.281259 204 51 127
-0.344180 -0.596642 -0.303505 0 127 127
-0.392897 0.140592 -0.357597 0 0 255
-0.296354 -0.020284 0.125715 76 0 153
-0.367564 -0.603219 0.405784 76 0 153
0.421427 -0.014400 -0.099583 76 0 153
-0.420518 -0.757847 -0.331311 0 127 127
-0.422301 -0.017777 0.222974 76 0 153
-0.396632 -0.763555 -0.281259 0 127 127
0.089514 0.056054 0.195809 76 0 153
0.416961 -0.481926 -0.338808 76 153 0
0.419201 -0.378197 0.452583 153 0 76
0.375657 -0.105188 -0.357597 76 153 0
-0.291789 0.056054 0.299211 76 0 153
0.190846 0.012811 -0.358624 76 0 153
0.390234 -0.452021 -0.357597 76 153 0
0.077262 -0.020284 -0.030928 76 0 153
-0.376085 -0.694180 0.482122 76 0 153
0.332790 0.699735 -0.305110 0 255 0
0.359772 -0.279895 0.474183 153 0 76
0.419201 -0.259456 0.425844 153 0 76
0.345543 -0.020284 0.298298 76 0 153
0.365699 0.691679 -0.281259 204 51 127
0.402364 0.056054 0.089018 76 0 153
-0.151063 0.604234 -0.305110 0 255 0
0.100591 0.532448 -0.306757 0 255 0
0.285464 -0.020284 0.326654 76 0 153
0.271505 -0.020284 0.484009 76 0 153
0.367205 -0.650020 0.405784 153 0 76
-0.201185 0.006530 -0.358624 76 0 153
0.248779 0.056054 0.347237 76 0 153
-0.086553 0.056054 0.460716 76 0 153
-0.395701 0.504235 -0.281259 0 0 255
0.332767 0.680594 -0.335645 0 255 0
0.048777 0.056054 -0.139461 76 0 153
0.392757 0.240968 -0.357597 204 51 127
0.056142 -0.020284 0.216485 76 0 153
0.342863 -0.346316 0.426252 153 0 76
-0.282448 -0.020284 -0.264109 76 0 153
-0.264098 0.048784 0.484030 76 0 153
0.366074 0.131399 -0.281259 204 51 127
0.419201 -0.457798 -0.303062 76 153 0
0.168408 0.056054 0.023772 76 0 153
-0.422301 0.012885 0.144765 76 0 153
0.074055 -0.020284 0.302684 76 0 153
-0.007259 0.056054 0.261054 76 0 153
-0.232728 0.056054 -0.336353 76 0 153
-0.365232 -0.121369 -0.281259 0 127 127
0.127707 -0.020284 -0.107010 76 0 153
-0.166672 0.675893 -0.305110 0 255 0
0.138924 -0.019347 -0.358624 76 0 153
0.217446 0.056054 0.414403 76 0 153
0.113227 0.056054 0.243504 76 0 153
0.333829 0.031485 0.484030 76 0 153
0.352812 0.056054 0.414643 76 0 153
-0.164568 -0.020284 0.325222 76 0 153
-0.411587 -0.035526 0.465623 76 0 153
0.285834 -0.020284 0.280889 76 0 153
-0.046329 0.056054 0.314595 76 0 153
-0.200219 0.697609 -0.335645 0 255 0
-0.235071 0.686436 -0.305110 0 255 0
0.342863 -0.135707 -0.308624 76 153 0
-0.016871 -0.020284 0.328124 76 0 153
0.027574 0.056054 -0.018300 76 0 153
0.283933 0.056054 -0.188722 76 0 153
-0.302376 0.012917 -0.358624 76 0 153
0.198094 -0.020284 0.403808 76 0 153
-0.095855 0.026195 0.484030 76 0 153
-0.243795 0.056054 0.332771 76 0 153
-0.061861 0.056054 0.067013 76 0 153
0.342863 -0.260773 0.432659 153 0 76
0.088714 -0.020284 0.184304 76 0 153
-0.390064 0.056054 0.479708 76 0 153
0.044013 0.056054 0.176491 76 0 153
0.362616 -0.020284 -0.213688 76 0 153
0.157677 0.671757 -0.305110 0 255 0
-0.218768 -0.020284 0.460729 76 0 153
0.372189 -0.420861 -0.281259 76 153 0
0.391404 0.500788 -0.357597 204 51 127
-0.384362 -0.783665 0.441434 127 0 127
-0.013856 -0.020284 -0.204990 76 0 153
0.392679 0.607475 -0.281259 204 51 127
-0.396182 -0.006595 0.484030 76 0 153
0.363396 0.719749 -0.357597 204 51 127
-0.343543 0.056054 -0.311354 76 0 153
0.359692 -0.071533 0.473991 153 0 76
0.171066 -0.020284 -0.189962 76 0 153
0.295369 0.056054 0.048099 76 0 153
0.137278 0.658435 -0.335645 0 255 0
0.206173 -0.020284 -0.345801 76 0 153
0.044114 0.056054 -0.357659 76 0 153
-0.420518 -0.517107 0.462797 76 0 153
0.419201 -0.241058 -0.306196 76 153 0
-0.064116 -0.020284 -0.131581 76 0 153
-0.155501 -0.020284 0.115988 76 0 153
0.200404 -0.020284 0.100980 76 0 153
-0.394980 0.048749 -0.358624 76 0 153
-0.061475 0.595538 -0.335645 0 255 0
-0.422301 0.028483 0.377404 76 0 153
0.192437 0.056054 0.261883 76 0 153
-0.420518 -0.444013 -0.337283 0 127 127
-0.362958 -0.243604 -0.355267 0 127 127
-0.123848 -0.020284 0.059512 76 0 153
-0.334166 -0.020284 0.169591 76 0 153
-0.376017 -0.020284 0.137320 76 0 153
-0.409268 -0.437874 0.467233 76 0 153
-0.420518 -0.177618 -0.300324 0 127 127
-0.100159 0.056054 -0.125413 76 0 153
-0.029893 0.056054 0.431435 76 0 153
0.172845 -0.020284 0.310513 76 0 153
0.118707 -0.020284 0.346103 76 0 153
0.324050 -0.020284 0.238609 76 0 153
0.042798 -0.020284 0.329661 76 0 153
-0.344180 0.666260 -0.310044 0 255 0
-0.321059 0.056054 0.109703 76 0 153
-0.371159 0.093217 -0.357597 0 0 255
-0.362691 0.129096 -0.285619 0 0 255
-0.010361 0.056054 0.142640 76 0 153
0.394507 -0.783665 0.478811 153 0 76
0.201595 0.542593 -0.335645 0 255 0
0.103355 0.056054 -0.332011 76 0 153
-0.219590 0.587919 -0.305110 0 255 0
-0.399548 0.602850 -0.281259 0 0 255
-0.306862 0.056054 0.205615 76 0 153
0.050211 0.676897 -0.305110 0 255 0
0.234186 0.653153 -0.305110 0 255 0
-0.362052 -0.689919 -0.351301 0 127 127
0.360827 -0.176826 -0.351523 76 153 0
0.366780 0.142636 -0.357597 204 51 127
-0.113980 0.056054 0.100887 76 0 153
-0.397313 -0.020284 0.386166 76 0 153
-0.265618 0.602071 -0.335645 0 255 0
-0.283361 -0.020284 0.356261 76 0 153
-0.361397 -0.241908 0.413662 76 0 153
0.155164 0.056054 -0.275626 76 0 153
0.325787 0.030915 -0.358624 76 0 153
0.344342 -0.020284 -0.009156 76 0 153
-0.186685 -0.020284 0.173344 76 0 153
-0.202217 -0.020284 0.310719 76 0 153
-0.140962 0.672573 -0.335645 0 255 0
0.384353 0.056054 0.117429 76 0 153
0.346903 -0.574478 0.463832 153 0 76
0.039078 0.056054 0.481636 76 0 153
0.410767 0.056054 0.227525 76 0 153
0.372122 -0.798366 -0.348516 0 127 127
0.076519 0.667874 -0.335645 0 255 0
-0.394895 0.189703 -0.281259 0 0 255
-0.411190 0.056054 0.019675 76 0 153
0.309587 0.056054 -0.013867 76 0 153
0.247064 0.031209 0.484030 76 0 153
0.374806 0.078541 -0.357597 204 51 127
0.325404 -0.020284 0.101728 76 0 153
-0.332637 0.056054 0.063181 76 0 153
-0.130529 -0.020284 -0.233391 76 0 153
0.076074 0.056054 0.023724 76 0 153
-0.048027 0.668439 -0.305110 0 255 0
-0.016696 -0.020284 0.048868 76 0 153
0.217137 0.711842 -0.330530 0 255 0
0.199072 -0.020284 0.165574 76 0 153
-0.327806 0.534175 -0.305110 0 255 0
-0.348305 -0.580244 0.463580 76 0 153
-0.133980 0.056054 -0.016861 76 0 153
0.348092 -0.020284 0.056614 76 0 153
0.202820 0.621823 -0.335645 0 255 0
-0.004592 0.015929 -0.358624 76 0 153
0.170132 0.601003 -0.305110 0 255 0
0.355945 0.601842 -0.316718 0 255 0
0.100777 0.056054 -0.185669 76 0 153
0.203664 0.582534 -0.305110 0 255 0
0.159942 0.056054 0.138746 76 0 153
-0.344180 -0.404152 -0.300776 0 127 127
0.373957 0.056054 -0.023918 76 0 153
-0.027281 0.687010 -0.335645 0 255 0
-0.366421 -0.592662 -0.357597 0 127 127
0.016774 -0.020284 -0.052768 76 0 153
-0.369320 0.414910 -0.281259 0 0 255
0.361612 0.646097 -0.281805 204 51 127
0.107106 0.035723 -0.358624 76 0 153
0.342863 -0.640135 -0.306775 76 153 0
0.333889 -0.020284 -0.148370 76 0 153
-0.281361 0.056054 0.362666 76 0 153
-0.344180 -0.337256 0.437599 76 0 153
-0.422301 0.014963 0.207950 76 0 153
-0.095437 0.674748 -0.305110 0 255 0
-0.360070 0.056054 -0.077717 76 0 153
0.342863 -0.084398 -0.302422 76 153 0
-0.070882 0.646294 -0.335645 0 255 0
0.182557 0.708852 -0.335645 0 255 0
-0.386417 0.631751 -0.281259 0 0 255
-0.422301 0.023861 0.462817 76 0 153
0.399712 -0.204780 -0.281259 76 153 0
0.059754 -0.020284 0.268044 76 0 153
0.421427 0.011385 0.272403 76 0 153
0.291428 0.056054 0.335831 76 0 153
-0.092623 0.710041 -0.335645 0 255 0
-0.411233 0.056054 0.429257 76 0 153
0.049364 -0.020284 0.046487 76 0 153
0.366753 0.303425 -0.281259 204 51 127
0.346731 0.056054 0.111144 76 0 153
-0.168819 0.615885 -0.335645 0 255 0
0.150126 0.056054 -0.053477 76 0 153
0.400361 -0.519490 -0.283121 76 153 0
-0.121241 0.708624 -0.305110 0 255 0
0.378095 -0.349511 0.405784 153 0 76
0.421427 0.026812 0.055777 76 0 153
0.388159 -0.020284 -0.329057 76 0 153
-0.344180 0.397118 -0.333391 0 0 255
-0.357196 0.056054 0.212194 76 0 153
0.358317 0.056054 -0.293842 204 51 127
0.031925 0.619393 -0.305110 0 255 0
0.118127 0.568028 -0.335645 0 255 0
0.342863 0.270456 -0.333063 204 51 127
-0.115449 0.606294 -0.335645 0 255 0
-0.264090 0.648709 -0.335645 0 255 0
0.011900 -0.020284 0.272649 76 0 153
0.342863 -0.528082 -0.310945 76 153 0
0.145387 -0.020284 0.369516 76 0 153
0.347152 0.501257 -0.339077 204 51 127
-0.101248 0.056054 0.170475 76 0 153
-0.380828 -0.666195 0.405784 76 0 153
-0.370929 0.575432 -0.281259 0 0 255
0.119270 -0.020284 0.288629 76 0 153
-0.083585 0.056054 -0.187607 76 0 153
-0.073945 -0.020284 0.348321 76 0 153
-0.420518 -0.682345 0.450045 76 0 153
0.377034 -0.012930 0.484030 76 0 153
0.372550 -0.020284 0.202989 76 0 153
0.281079 0.608039 -0.305110 0 255 0
-0.286852 -0.020284 0.481446 76 0 153
0.397716 -0.573488 0.405784 153 0 76
0.419201 -0.476260 0.450327 153 0 76
0.005322 0.056054 0.314758 76 0 153
0.419088 -0.150632 -0.300329 76 153 0
-0.398020 -0.735432 0.405784 76 0 153
-0.344180 -0.572526 -0.331681 0 127 127
-0.376595 0.385667 -0.357597 0 0 255
-0.001730 -0.020284 0.015401 76 0 153
-0.420518 -0.198544 0.462331 76 0 153
0.087770 -0.020284 -0.159577 76 0 153
0.361603 -0.518956 0.408403 153 0 76
0.220332 -0.020284 -0.283972 76 0 153
0.072802 0.056054 0.132987 76 0 153
0.388321 -0.020284 0.390027 76 0 153
0.013038 -0.020284 0.314565 76 0 153
0.002731 0.056054 -0.358297 76 0 153
0.016181 -0.020284 0.221014 76 0 153
-0.344417 -0.518085 0.424837 76 0 153
0.229403 0.535569 -0.305110 0 255 0
0.419201 0.534359 -0.323475 204 51 127
0.322460 0.056054 -0.331116 76 0 153
-0.396704 0.056054 0.220117 76 0 153
-0.009974 0.533116 -0.305110 0 255 0
-0.110229 0.550172 -0.335645 0 255 0
0.400782 -0.003492 -0.358624 76 153 0
-0.298497 0.056054 -0.337763 76 0 153
-0.203083 0.547096 -0.335645 0 255 0
0.399754 -0.763396 -0.281259 76 153 0
-0.242195 0.056054 -0.267757 76 0 153
0.098390 -0.020284 0.079494 76 0 153
-0.381481 0.708860 -0.305760 0 255 0
-0.031956 -0.020284 0.455089 76 0 153
0.390011 -0.020284 -0.068895 76 0 153
-0.163210 -0.020284 0.225854 76 0 153
-0.217352 0.056054 -0.215812 76 0 153
-0.362937 -0.524094 0.479633 76 0 153
0.254751 -0.020284 0.180088 76 0 153
-0.344180 -0.255553 -0.302617 0 127 127
0.355421 -0.289188 0.419997 153 0 76
-0.422301 0.054738 0.118643 76 0 153
0.331896 -0.020284 -0.041166 76 0 153
-0.000015 0.056054 -0.062143 76 0 153
-0.161051 0.056054 0.258749 76 0 153
-0.143032 0.056054 0.482966 76 0 153
-0.376681 -0.020284 -0.089066 76 0 153
0.401711 0.029231 -0.352766 76 0 153
-0.344180 0.036527 -0.337645 0 0 255
0.114076 -0.020284 0.041503 76 0 153
0.243409 0.056054 0.084556 76 0 153
0.419201 -0.353197 -0.317018 76 153 0
-0.342628 -0.020284 0.365458 76 0 153
-0.377478 -0.058527 0.405784 76 0 153
0.295182 -0.020284 0.438217 76 0 153
-0.143743 0.056054 0.113940 76 0 153
0.263295 0.532650 -0.335645 0 255 0
0.351364 -0.598092 0.422742 153 0 76
-0.351579 0.595539 -0.305110 0 0 255
0.342863 -0.393846 0.429594 153 0 76
-0.358748 -0.020284 0.212728 76 0 153
-0.126980 0.056054 0.450788 76 0 153
-0.249856 0.056054 -0.047306 76 0 153
0.407856 -0.618630 -0.296404 76 153 0
-0.019353 0.056054 0.336180 76 0 153
-0.215335 0.639882 -0.335645 0 255 0
-0.129469 -0.020284 0.482591 76 0 153
-0.364809 -0.059749 0.482122 76 0 153
-0.287944 0.710296 -0.305110 0 255 0
0.294153 0.056054 0.293496 76 0 153
0.274742 0.056054 -0.153163 76 0 153
0.401216 -0.304317 -0.287284 76 153 0
-0.360098 -0.532571 -0.291596 0 127 127
0.393035 -0.258520 0.405784 153 0 76
-0.420518 0.406148 -0.322922 0 0 255
0.359434 -0.010800 -0.290015 76 153 0
-0.182747 0.625740 -0.305110 0 255 0
-0.156253 -0.020284 -0.181630 76 0 153
-0.188659 -0.020284 -0.342069 76 0 153
0.397909 0.161331 -0.281259 204 51 127
0.421427 0.050088 -0.012085 76 0 153
-0.154330 0.056054 -0.101814 76 0 153
-0.307800 -0.020284 0.338444 76 0 153
-0.288578 -0.020284 -0.129452 76 0 153
-0.344180 0.429558 -0.330250 0 0 255
0.421427 0.009927 0.335195 76 0 153
-0.422301 -0.002427 -0.005495 76 0 153
-0.401063 0.056054 0.169388 76 0 153
-0.172673 0.056054 -0.325499 76 0 153
0.344339 -0.218133 0.463495 153 0 76
0.342683 0.056054 0.386196 76 0 153
0.248562 -0.020284 -0.352341 76 0 153
0.380818 -0.628846 0.482122 153 0 76
0.421427 0.026993 -0.229517 76 0 153
-0.059527 0.056054 -0.231900 76 0 153
-0.271502 -0.020284 0.150899 76 0 153
0.393808 0.056054 -0.139636 76 0 153
-0.353380 0.528847 -0.340928 0 255 0
0.421427 -0.007353 -0.221416 76 0 153
-0.422301 0.016675 -0.155547 76 0 153
-0.404242 -0.176814 -0.347727 0 127 127
0.351365 0.056054 0.465369 76 0 153
-0.362551 -0.305833 -0.352505 0 127 127
-0.303832 0.561622 -0.335645 0 255 0
0.419201 -0.743093 -0.307809 76 153 0
-0.344180 -0.538555 -0.336362 0 127 127
-0.073320 -0.020284 0.482427 76 0 153
-0.052488 0.056054 -0.168253 76 0 153
-0.321660 0.056054 -0.207570 76 0 153
-0.420518 -0.210478 -0.303260 0 127 127
-0.372146 -0.420239 0.482122 76 0 153
0.051639 0.026652 0.484030 76 0 153
0.060307 0.619577 -0.335645 0 255 0
0.387291 -0.747671 0.405784 153 0 76
-0.375416 -0.783659 -0.317109 127 127 0
0.192697 -0.020284 0.356645 76 0 153
-0.350134 0.743096 -0.333197 0 0 255
0.354751 0.056054 -0.118127 76 0 153
-0.183529 0.030778 -0.358624 76 0 153
0.282704 -0.020284 0.389286 76 0 153
-0.411298 0.002562 -0.341923 76 0 153
0.238433 0.056054 0.293539 76 0 153
-0.191993 -0.020284 0.203225 76 0 153
-0.014928 0.056054 -0.334102 76 0 153
-0.061535 0.056054 0.115140 76 0 153
0.402086 -0.377891 -0.349473 76 153 0
-0.055152 -0.020284 0.097672 76 0 153
-0.293374 0.590936 -0.335645 0 255 0
0.323155 -0.020284 0.347470 76 0 153
0.238655 0.711842 -0.305242 0 255 0
0.137061 -0.020284 -0.021781 76 0 153
0.419201 -0.426847 -0.315249 76 153 0
0.297540 0.056054 0.387298 76 0 153
-0.280037 -0.020284 0.243700 76 0 153
0.420610 -0.020284 0.014515 76 0 153
-0.422301 0.051580 0.084057 76 0 153
0.185684 -0.020284 0.126974 76 0 153
-0.367080 0.056054 0.114935 76 0 153
0.361654 0.448178 -0.281487 204 51 127
0.189594 0.056054 0.068449 76 0 153
-0.401698 0.239067 -0.355586 0 0 255
-0.386255 0.056054 0.265675 76 0 153
-0.069095 -0.020284 -0.190126 76 0 153
0.342863 -0.750109 0.425637 153 0 76
-0.119792 0.056054 0.247691 76 0 153
0.001671 -0.020284 -0.094103 76 0 153
0.085797 -0.020284 -0.110217 76 0 153
0.202887 -0.020284 0.206591 76 0 153
-0.091933 0.627102 -0.305110 0 255 0
0.331911 0.056054 0.146724 76 0 153
-0.292896 0.056054 -0.028372 76 0 153
-0.192576 -0.020284 0.268992 76 0 153
-0.417995 -0.133523 -0.299748 0 127 127
0.419201 0.073820 -0.336572 204 51 127
0.233439 0.056054 -0.194251 76 0 153
0.392192 0.056054 0.031639 76 0 153
-0.043559 0.056054 0.171012 76 0 153
-0.174503 0.055432 0.484030 76 0 153
-0.019196 0.056054 -0.261783 76 0 153
0.199580 0.056054 0.181485 76 0 153
-0.404295 -0.020284 0.036806 76 0 153
0.068231 0.056054 0.077475 76 0 153
0.360849 0.056054 0.260888 76 0 153
-0.242691 0.565259 -0.305110 0 255 0
0.264984 -0.020284 -0.051143 76 0 153
0.421427 0.025681 0.191321 76 0 153
-0.106252 -0.020284 -0.163611 76 0 153
0.082118 0.585131 -0.305110 0 255 0
0.415585 -0.710229 -0.299868 76 153 0
0.173125 -0.020284 0.030727 76 0 153
-0.224962 -0.020284 -0.051693 76 0 153
0.079684 0.562337 -0.335645 0 255 0
0.353206 -0.447777 0.421697 153 0 76
0.328088 0.056054 0.437402 76 0 153
0.411658 -0.641942 -0.340241 76 153 0
0.395131 0.034277 -0.281259 204 51 127
-0.102945 0.056054 0.277968 76 0 153
0.275359 0.056054 -0.014945 76 0 153
-0.388531 0.743096 -0.345572 0 0 255
0.371594 -0.697757 0.405784 153 0 76
-0.243502 -0.020284 0.100157 76 0 153
-0.420518 0.605807 -0.325677 0 0 255
-0.420518 -0.033493 0.437525 76 0 153
-0.400712 -0.513887 -0.281259 0 127 127
0.009597 0.056054 0.047101 76 0 153
-0.419316 -0.222059 -0.338671 0 127 127
-0.231087 -0.020284 -0.251745 76 0 153
-0.009894 0.702676 -0.305110 0 255 0
-0.410269 -0.127960 -0.341612 0 127 127
0.403646 0.581818 -0.292069 204 51 127
0.136984 0.056054 0.483541 76 0 153
0.275507 0.010519 0.484030 76 0 153
-0.401156 -0.803585 0.426405 127 0 127
-0.229316 0.532560 -0.305110 0 255 0
-0.422301 0.055821 -0.069170 76 0 153
-0.344180 0.449341 -0.306135 0 0 255
-0.420518 -0.318395 -0.306472 0 127 127
0.155248 0.608778 -0.335645 0 255 0
0.005961 -0.011875 0.484030 76 0 153
0.182068 -0.020284 -0.062417 76 0 153
-0.379545 -0.020284 -0.012326 76 0 153
-0.094489 -0.020284 -0.133673 76 0 153
-0.391884 -0.184201 0.482122 76 0 153
-0.107606 0.056054 0.018483 76 0 153
0.053908 0.534134 -0.305110 0 255 0
0.338610 0.645622 -0.335645 204 51 127
-0.420518 -0.394212 -0.301827 0 127 127
0.370786 0.284891 -0.357597 204 51 127
0.393551 -0.020284 -0.157169 76 0 153
-0.354388 -0.803119 0.443302 127 0 127
0.228379 -0.020284 0.308721 76 0 153
-0.073477 -0.020284 -0.251480 76 0 153
0.392338 -0.020284 0.058784 76 0 153
0.378827 -0.516177 -0.357597 76 153 0
-0.082543 -0.020284 0.223341 76 0 153
-0.360654 0.039641 0.484030 76 0 153
-0.146190 -0.020046 -0.358624 76 0 153
0.203191 -0.020284 -0.184893 76 0 153
-0.399045 -0.020284 0.172915 76 0 153
-0.004050 0.056054 -0.163056 76 0 153
-0.237300 0.056054 0.126873 76 0 153
